# .PCD v0.7 - Point Cloud Data file format
VERSION 0.7
FIELDS x y z rgba
SIZE 4 4 4 4
TYPE F F F U
COUNT 1 1 1 1
WIDTH 186
HEIGHT 1
VIEWPOINT 0 0 0 1 0 0 0
POINTS 186
DATA ascii
31.585337 17.921074 0.47699311 4281809950
31.592045 17.915361 0.46692398 4281875740
31.596155 17.911625 0.45916882 4282007331
31.602839 17.904694 0.44838521 4282467631
31.608896 17.899475 0.4388946 4282467635
31.586092 17.922558 0.48003054 4282138155
31.591501 17.917835 0.47111842 4282664495
31.594042 17.916321 0.46661744 4282335781
31.596203 17.914066 0.46059769 4282072356
31.598095 17.913046 0.4566752 4281874980
31.602205 17.909309 0.44891998 4282335789
31.608887 17.902378 0.43813643 4282072876
31.613647 17.898148 0.42980278 4281743653
31.622301 17.890953 0.41799816 4282138153
31.628984 17.884022 0.40721455 4283191098
31.631147 17.881765 0.40119484 4283915077
31.595446 17.917313 0.46907634 4282796081
31.596687 17.916786 0.46573237 4282335781
31.597551 17.915518 0.46086958 4282203942
31.597494 17.915981 0.45868251 4281546015
31.600035 17.914467 0.45418149 4281743652
31.602196 17.912212 0.44816181 4281875497
31.605007 17.909464 0.44156364 4282467376
31.610769 17.904261 0.43345574 4282072360
31.619696 17.895832 0.41955391 4281480480
31.622887 17.893826 0.4144744 4282204459
31.631163 17.885889 0.40115109 4282665010
31.635923 17.881659 0.39281747 4282336045
31.640034 17.877922 0.38506225 4281941544
31.641899 17.875683 0.38042524 4281152285
31.598955 17.91651 0.46332857 4283191111
31.599548 17.916477 0.46056297 4282796605
31.598841 17.917433 0.45895439 4282072878
31.599434 17.917402 0.45618889 4281612323
31.601597 17.915146 0.45016921 4281744162
31.603487 17.914127 0.44624665 4281678368
31.606947 17.910885 0.43906993 4282204711
31.611708 17.906654 0.43073627 4282270505
31.61552 17.902933 0.42436385 4281480990
31.624472 17.895723 0.41117647 4281678369
31.629881 17.890999 0.40226433 4282204713
31.633991 17.887262 0.39450917 4282665265
31.63456 17.886011 0.39102915 4282599217
31.641562 17.880283 0.37957731 4281875495
31.646322 17.876053 0.37124357 4281349151
31.601625 17.918196 0.46315789 4283520076
31.60092 17.919151 0.46154934 4283454535
31.599564 17.920601 0.46051928 4283191359
31.599506 17.921062 0.45833221 4282796597
31.599424 17.920305 0.45543072 4282336299
31.598719 17.921261 0.45382217 4281415196
31.602205 17.919237 0.44735992 4281349402
31.606964 17.915007 0.43902624 4282138919
31.612349 17.909063 0.42939961 4282336299
31.617107 17.904833 0.42106593 4282007334
31.620296 17.902824 0.41598651 4281546783
31.623108 17.900076 0.40938821 4281546784
31.627218 17.896339 0.40163305 4282336045
31.634871 17.890118 0.38960269 4282862390
31.641579 17.884405 0.37953356 4282533425
31.6082 17.914015 0.46027449 4282007865
31.606194 17.915958 0.45982289 4282401857
31.605488 17.916914 0.45821434 4282796613
31.603483 17.918858 0.45776278 4283322955
31.602129 17.920307 0.45673266 4283389004
31.602072 17.920771 0.45454565 4283125831
31.60009 17.923933 0.45480844 4282862657
31.602903 17.921185 0.44821027 4281875760
31.604143 17.92066 0.44486621 4281283620
31.605658 17.918898 0.43942499 4281810217
31.608198 17.917385 0.43492398 4282270766
31.609711 17.915623 0.42948276 4282270765
31.612547 17.914095 0.42359903 4281612835
31.615063 17.91136 0.41838357 4281349663
31.618523 17.908117 0.41120687 4281876008
31.625231 17.902405 0.40113774 4282599731
31.634157 17.893976 0.38723591 4283192129
31.618883 17.906099 0.44963595 4280692005
31.610138 17.915436 0.45778087 4280230688
31.608133 17.917379 0.45732927 4282862406
31.606129 17.919323 0.45687765 4283322955
31.604149 17.922487 0.45714054 4283125832
31.603443 17.923443 0.45553195 4283586382
31.602383 17.924877 0.4531191 4283454794
31.601652 17.924612 0.45079616 4282402104
31.600946 17.925568 0.44918758 4282599480
31.602188 17.925043 0.44584355 4281744424
31.604376 17.924007 0.44053826 4281612836
31.604967 17.923977 0.43777272 4282007593
31.607779 17.921227 0.43117446 4282336558
31.608995 17.919481 0.42711604 4282073386
31.610535 17.91894 0.42238921 4281547043
31.613995 17.915697 0.41521254 4281612836
31.623949 17.907516 0.40225098 4282205234
31.626017 17.90357 0.44251442 4281020202
31.614298 17.914141 0.45145458 4283191373
31.612318 17.917303 0.45171744 4283322961
31.609663 17.919741 0.45184427 4283059791
31.608957 17.920696 0.45023572 4282401863
31.605005 17.924122 0.45151958 4281546552
31.604322 17.926298 0.45062548 4281612343
31.601021 17.92923 0.45133084 4282599235
31.601612 17.929197 0.4485653 4283454541
31.60218 17.927946 0.44508532 4282796864
31.60112 17.92938 0.44267246 4282204723
31.604309 17.927372 0.43759304 4282007341
31.604549 17.927818 0.43402323 4282336559
31.605766 17.926073 0.42996472 4282468145
31.607008 17.925549 0.42662069 4281876007
31.611118 17.92181 0.41886553 4281152799
31.617472 17.916576 0.40799209 4281745451
31.620316 17.913507 0.43973312 4280954417
31.610897 17.922119 0.44774207 4282007103
31.607594 17.925049 0.44844753 4283257168
31.603016 17.930189 0.45102429 4283125579
31.601662 17.931639 0.44999418 4283322955
31.601604 17.9321 0.44780716 4283652173
31.600248 17.93355 0.44677705 4283586376
31.602436 17.932514 0.44147176 4282599478
31.601728 17.93347 0.4398632 4281941801
31.602297 17.932219 0.43638328 4282336559
31.604485 17.931183 0.43107799 4282731316
31.604427 17.931646 0.42889091 4282731831
31.607887 17.928402 0.42171419 4281416486
31.612648 17.924171 0.41338053 4281613610
31.617407 17.919941 0.40504685 4281482025
31.619595 17.918907 0.39974156 4282534715
31.625002 17.914183 0.39082941 4282403131
31.600321 17.93721 0.44892037 4283388756
31.60154 17.935465 0.44486192 4283520337
31.599831 17.937393 0.44302753 4283125831
31.601072 17.936867 0.43968356 4282533688
31.602314 17.936342 0.43633953 4282204973
31.602552 17.936789 0.43276972 4282139437
31.603121 17.935535 0.42928973 4282731830
31.607254 17.93302 0.42224896 4282140206
31.610716 17.929777 0.41507223 4281416483
31.616774 17.924559 0.40558162 4281284898
31.6257 17.916128 0.39167979 4281942830
31.602238 17.937412 0.44571227 4283388751
31.599607 17.941069 0.44655365 4283323210
31.599823 17.940296 0.44226938 4283257411
31.601063 17.93977 0.43892533 4282928696
31.601656 17.939737 0.43615982 4282402609
31.603193 17.939198 0.43143305 4282271279
31.605061 17.936956 0.42679608 4282469171
31.607897 17.935429 0.4209123 4282732343
31.612007 17.931692 0.41315708 4282206000
31.622231 17.922274 0.39809832 4281350693
31.618929 17.925205 0.39880374 4281416235
31.616947 17.92837 0.3990666 4281876278
31.61754 17.928337 0.396301 4282600003
31.607296 17.938362 0.42291966 4282271284
31.610132 17.936834 0.41703585 4282731833
31.613945 17.933113 0.41066346 4283126589
31.612886 17.934547 0.4082506 4282402608
31.614128 17.934021 0.40490654 4281744419
31.615641 17.932261 0.39946535 4281547042
31.619127 17.930237 0.39300308 4282073387
31.60672 17.942516 0.42564145 4283126593
31.607288 17.941265 0.42216146 4282468661
31.608528 17.940741 0.41881749 4283258175
31.60747 17.942173 0.41640463 4283257917
31.60936 17.941154 0.41248205 4283257658
31.612171 17.938406 0.40588388 4282402351
31.614359 17.93737 0.40057859 4281612836
31.616875 17.934637 0.39536312 4281744169
31.60866 17.943939 0.4231478 4283586896
31.609251 17.943907 0.42038229 4282995009
31.608545 17.944862 0.41877374 4282863421
31.608759 17.944088 0.41448948 4282797626
31.607405 17.945538 0.41345939 4283587141
31.609591 17.944504 0.40815404 4283850312
31.611483 17.943483 0.40423158 4282665781
31.617188 17.938744 0.39393666 4281744421
31.608707 17.946379 0.42457667 4282994759
31.609301 17.946346 0.42181113 4281810735
31.607944 17.947798 0.42078111 4283323972
31.607887 17.948259 0.41859403 4282863419
31.605883 17.950203 0.41814241 4282666039
31.606771 17.950155 0.4139941 4283192382
31.606714 17.950617 0.41180709 4285494880
31.608643 17.949743 0.42163143 4282205501
31.607937 17.950699 0.42002288 4283061063
31.604008 17.955345 0.42202121 4283521608
31.603952 17.955807 0.41983411 4283324480
