# .PCD v0.7 - Point Cloud Data file format
VERSION 0.7
FIELDS x y z rgba
SIZE 4 4 4 4
TYPE F F F U
COUNT 1 1 1 1
WIDTH 133
HEIGHT 1
VIEWPOINT 0 0 0 1 0 0 0
POINTS 133
DATA ascii
31.524899 17.252241 0.90055907 4281219087
31.524193 17.253197 0.89895046 4281219086
31.524441 17.25074 0.89613879 4281284880
31.524712 17.249504 0.8940416 4281219088
31.525633 17.247774 0.89136589 4281350676
31.523642 17.258572 0.90238667 4281350673
31.522911 17.258308 0.90006375 4281416465
31.52383 17.256578 0.89738798 4281350672
31.524752 17.254848 0.89471233 4281284879
31.525024 17.253613 0.89261514 4281482261
31.525295 17.252377 0.89051795 4281350677
31.523586 17.254303 0.8886835 4281153046
31.5203 17.261358 0.88934517 4281613601
31.518591 17.263285 0.88751084 4282731830
31.518864 17.262049 0.88541359 4284113486
31.517828 17.264704 0.88371521 4285494118
31.523361 17.262711 0.90372574 4281416466
31.525885 17.257074 0.89926851 4281416465
31.52618 17.257059 0.89788568 4281350672
31.52545 17.256794 0.89556271 4281284879
31.524769 17.25897 0.89466858 4281219089
31.525665 17.256021 0.89127851 4281350677
31.524935 17.255756 0.88895541 4281547804
31.524229 17.256712 0.88734686 4281416222
31.522568 17.26108 0.88694137 4281218591
31.52021 17.263502 0.8856855 4282205489
31.518551 17.26787 0.88528001 4283980879
31.519447 17.264919 0.88188994 4285295974
31.522324 17.258806 0.87823689 4285295461
31.521593 17.258541 0.87591392 4285163617
31.520912 17.260717 0.87501979 4285360996
31.522137 17.256069 0.87171948 4285952876
31.528425 17.255562 0.89476746 4281482519
31.525114 17.261395 0.89471471 4281482520
31.527342 17.255775 0.89164019 4281416727
31.529865 17.250139 0.88718295 4281416727
31.525141 17.257885 0.88391298 4281614108
31.523481 17.262253 0.88350749 4282073644
31.520794 17.266373 0.88216186 4283849039
31.522045 17.262945 0.87957597 4284704090
31.522964 17.261215 0.8769002 4285295969
31.522259 17.262171 0.87529165 4285427041
31.520575 17.265318 0.87417179 4285755493
31.522425 17.258957 0.86957854 4286610546
31.52199 17.258677 0.8658728 4287005562
31.529366 17.253223 0.88053191 4281547300
31.527351 17.25807 0.87932217 4281875249
31.525019 17.261711 0.87878072 4283454023
31.5229 17.26458 0.87395501 4285360735
31.524775 17.259438 0.8700763 4286347374
31.525047 17.258202 0.86797905 4287202171
31.530867 17.241247 0.82675171 4285560933
31.533031 17.24555 0.84452236 4282734158
31.541094 17.22846 0.8370434 4281944640
31.54199 17.225512 0.83365327 4281812539
31.540331 17.229879 0.83324778 4283720020
31.536995 17.234493 0.83248055 4283851603
31.536938 17.234955 0.83029354 4283259206
31.536232 17.23591 0.82868499 4283390021
31.531918 17.242716 0.82840639 4283126591
31.52928 17.249277 0.82848954 4283192385
31.526947 17.252918 0.82794809 4282995007
31.528845 17.248997 0.82478374 4281350438
31.527138 17.250923 0.82294941 4281088035
31.52643 17.251881 0.82134086 4280825374
31.539181 17.233458 0.82717526 4283390280
31.535894 17.240511 0.82783693 4283258436
31.531935 17.24684 0.82836258 4283192643
31.529921 17.251684 0.82715285 4282468663
31.527588 17.255327 0.82661146 4282600506
31.529488 17.251406 0.82344711 4281613611
31.527803 17.254553 0.82232714 4282732345
31.528049 17.252096 0.81951547 4282600757
31.527992 17.252558 0.81732845 4281745703
31.53212 17.243017 0.81108963 4281154077
31.53595 17.23349 0.80623358 4280825625
31.535892 17.233953 0.80404657 4280629272
31.537062 17.229767 0.79855919 4281089825
31.530695 17.252562 0.81863046 4281942827
31.528362 17.256203 0.81808901 4282206254
31.526653 17.258131 0.81625468 4281219870
31.532761 17.245426 0.80975294 4281023004
31.535637 17.239311 0.80610001 4280563479
31.532951 17.243431 0.80475426 4280958238
31.533222 17.242195 0.80265707 4280497688
31.535746 17.236559 0.79819977 4280892190
31.529829 17.247271 0.79970276 4281483815
31.528025 17.260805 0.81724095 4281284636
31.530878 17.253469 0.81287354 4280824599
31.532423 17.250027 0.80890489 4280825369
31.533674 17.246599 0.80631906 4280956957
31.533617 17.247061 0.80413204 4280562201
31.533535 17.246302 0.80123055 4279575053
31.534431 17.243353 0.79784048 4280759074
31.530495 17.2509 0.79908055 4282008887
31.530415 17.250141 0.79617906 4281153580
31.531336 17.248411 0.7935034 4282732355
31.53516 17.237057 0.77637303 4282336553
31.533852 17.252237 0.81207836 4281219357
31.533794 17.252699 0.80989128 4281022748
31.531462 17.256342 0.80934989 4280693785
31.533337 17.2512 0.80547106 4280496408
31.532278 17.252632 0.80305821 4279772432
31.533197 17.250902 0.80038249 4280759074
31.53347 17.249666 0.79828531 4282140473
31.532764 17.250624 0.79667675 4282074682
31.532682 17.249865 0.79377526 4283785043
31.532625 17.250326 0.79158819 4285955955
31.532873 17.247871 0.78877658 4287469191
31.532816 17.248333 0.7865895 4287205759
31.532085 17.248068 0.78426647 4285297501
31.532356 17.246832 0.78216928 4283718209
31.532925 17.245581 0.77868932 4282797104
31.531569 17.24703 0.77765924 4282534185
31.532537 17.259029 0.81171894 4281088292
31.528601 17.266579 0.81295907 4280693535
31.531775 17.260448 0.80792332 4281153830
31.533625 17.254086 0.80333012 4281482796
31.532942 17.256262 0.80243599 4282009141
31.532862 17.255505 0.79953456 4282732352
31.53476 17.251581 0.79637021 4282403131
31.536306 17.248138 0.79240155 4281218858
31.532391 17.261637 0.80587226 4281614382
31.536896 17.252836 0.80115211 4281614383
31.535187 17.254765 0.79931772 4282534973
31.535458 17.253529 0.79722053 4282337338
31.537653 17.249592 0.79267347 4280889893
31.525507 17.270277 0.7717554 4282997834
31.518339 17.284416 0.77584428 4282866760
31.514051 17.292442 0.77628011 4283130188
31.513969 17.291683 0.77337861 4283853910
31.537157 17.257874 0.77294618 4281813824
31.536451 17.258829 0.77133763 4282077252
