# .PCD v0.7 - Point Cloud Data file format
VERSION 0.7
FIELDS x y z rgba
SIZE 4 4 4 4
TYPE F F F U
COUNT 1 1 1 1
WIDTH 884
HEIGHT 1
VIEWPOINT 0 0 0 1 0 0 0
POINTS 884
DATA ascii
31.480896 18.003765 1.0307813 4289047169
31.481817 18.002035 1.0281056 4289178500
31.500225 17.972418 1.1466506 4289244532
31.492685 17.981083 1.1377045 4290164623
31.494633 17.979603 1.135969 4286940515
31.499884 17.975189 1.1335282 4283847993
31.499531 17.975668 1.1327239 4285163602
31.492218 17.982487 1.1325262 4287268982
31.493813 17.981483 1.1299864 4288849557
31.617157 17.829056 1.3259274 4288650890
31.617455 17.829041 1.3245447 4288716689
31.617102 17.829517 1.3237404 4288782235
31.593117 17.870445 1.1944703 4285890379
31.595417 17.868484 1.193539 4285365331
31.596363 17.867975 1.1915778 4285825374
31.59601 17.868454 1.1907735 4285956196
31.593002 17.871368 1.1900961 4285824867
31.589018 17.876476 1.1899073 4285693794
31.584005 17.881334 1.1887784 4286088806
31.579348 17.885715 1.1884537 4287208054
31.555182 17.911791 1.1909348 4288391561
31.543589 17.923731 1.191931 4288851088
31.502254 17.971695 1.1478165 4288257637
31.50255 17.971678 1.1464338 4287994465
31.501549 17.972651 1.1462079 4288191846
31.500866 17.974827 1.1453139 4288191848
31.497858 17.977741 1.1446365 4288323177
31.496504 17.979191 1.1436064 4288520043
31.495501 17.980164 1.1433806 4288586090
31.49745 17.978682 1.1416452 4288980846
31.491434 17.984512 1.1402904 4289507186
31.488428 17.987427 1.139613 4289506940
31.489077 17.986933 1.1390345 4290098830
31.490023 17.986423 1.1370732 4290230165
31.492973 17.983971 1.1355636 4287532401
31.495249 17.980791 1.1339179 4284505672
31.491913 17.985405 1.1331507 4284110918
31.494213 17.983444 1.1322196 4283650882
31.491856 17.985867 1.1309637 4286086251
31.49313 17.98366 1.1290923 4287995273
31.493601 17.998028 1.0205506 4285164626
31.612604 17.835415 1.3292186 4289374558
31.613903 17.834427 1.3280617 4289242970
31.613197 17.835382 1.3264531 4289045845
31.612844 17.835861 1.3256488 4289505884
31.614143 17.834873 1.3244919 4289505628
31.614792 17.834379 1.3239133 4289505629
31.614439 17.834858 1.323109 4289571423
31.616739 17.832899 1.3221779 4289571175
31.617035 17.832882 1.3207952 4289176169
31.561348 17.905182 1.2104106 4284966194
31.563623 17.902002 1.208765 4285822016
31.571095 17.894871 1.2024914 4289506692
31.573395 17.892912 1.2015603 4289769867
31.578325 17.887295 1.1997877 4290098832
31.581924 17.884348 1.1976995 4289506695
31.583223 17.883362 1.1965426 4289441412
31.587175 17.879936 1.1952587 4288849529
31.591753 17.874798 1.1926819 4288915580
31.592402 17.874304 1.1921035 4288718459
31.591696 17.875259 1.1904949 4288718713
31.587687 17.879147 1.1895918 4288982140
31.584703 17.883282 1.1896288 4289376896
31.579693 17.88814 1.1884998 4289377149
31.574032 17.893494 1.1879493 4289113724
31.548567 17.920555 1.1915874 4288784761
31.540253 17.928345 1.1911638 4288192118
31.53727 17.93248 1.1912009 4287533938
31.51432 17.960178 1.164273 4289504900
31.504604 17.972176 1.1483142 4287072123
31.503897 17.973131 1.1467056 4287795589
31.503544 17.97361 1.1459014 4287795077
31.50219 17.97506 1.1448714 4288452238
31.502838 17.974566 1.1442928 4290886322
31.49818 17.978945 1.1439681 4290557357
31.496174 17.980888 1.1435165 4290359720
31.496471 17.980873 1.1421337 4290030497
31.495115 17.982323 1.1411037 4289898652
31.493111 17.984266 1.1406522 4289635478
31.495058 17.982786 1.1389166 4289570192
31.491402 17.986195 1.1388178 4289636748
31.490696 17.98715 1.1372092 4289833871
31.491995 17.986162 1.1360523 4289833359
31.49229 17.986147 1.1346694 4288714878
31.492586 17.986132 1.1332867 4286543709
31.493237 17.985638 1.1327082 4286083927
31.494181 17.985128 1.130747 4287269227
31.490524 17.988537 1.130648 4288783492
31.613953 17.836868 1.3294905 4289769316
31.614248 17.836853 1.3281077 4289571935
31.613871 17.836109 1.326589 4289177431
31.61319 17.838285 1.3256949 4289966435
31.613165 17.837067 1.3249805 4289834593
31.613461 17.837049 1.3235977 4289834594
31.613108 17.837528 1.3227934 4289703009
31.613403 17.837511 1.3214107 4290031726
31.615055 17.836046 1.3210579 4290228857
31.613701 17.837496 1.3200278 4289374330
31.612345 17.838945 1.3189977 4289440905
31.615295 17.836493 1.3174882 4289045895
31.617596 17.834534 1.3165569 4288716421
31.564083 17.903502 1.2131852 4286084678
31.565382 17.902514 1.2120283 4284768818
31.565678 17.902498 1.2106454 4283979301
31.563673 17.904442 1.2101939 4283781920
31.562967 17.905397 1.2085853 4283453468
31.563616 17.904903 1.2080069 4283387932
31.563911 17.904888 1.206624 4283980329
31.563534 17.904146 1.2051053 4284572470
31.566484 17.901693 1.2035956 4285822284
31.569435 17.89924 1.202086 4286743389
31.573715 17.894117 1.200892 4287927663
31.577314 17.891171 1.1988038 4288651386
31.580265 17.888716 1.1972941 4288651896
31.581564 17.88773 1.1961372 4288257392
31.58449 17.884056 1.1939131 4287797099
31.585138 17.883562 1.1933346 4287468392
31.585434 17.883547 1.1919519 4287534439
31.584728 17.884502 1.1903433 4287797866
31.581072 17.887911 1.1902443 4288390001
31.576735 17.893496 1.1892513 4288850805
31.566792 17.903973 1.1898948 4289113724
31.55883 17.911283 1.1902755 4288916347
31.544254 17.927361 1.1913089 4288586876
31.539595 17.931742 1.1909841 4286744422
31.53824 17.933191 1.189954 4287204210
31.536884 17.934641 1.188924 4285229656
31.512693 17.962864 1.1653402 4288386419
31.509686 17.96578 1.1646627 4287728233
31.505926 17.972408 1.1478717 4286743158
31.507225 17.97142 1.1467147 4285887592
31.50522 17.973364 1.1462631 4285952873
31.503864 17.974813 1.145233 4289110168
31.504162 17.974798 1.1438503 4292267975
31.501154 17.977713 1.143173 4292070596
31.497522 17.982342 1.1437885 4292201924
31.496817 17.983297 1.1421798 4292004287
31.496029 17.983496 1.1376698 4291347366
31.494698 17.986166 1.1373541 4291149731
31.494968 17.98493 1.135257 4291149219
31.493967 17.985901 1.1350311 4291215012
31.494263 17.985886 1.1336484 4290688668
31.49391 17.986364 1.1328441 4290031507
31.493204 17.98732 1.1312356 4289703568
31.612621 17.839539 1.3291749 4288059211
31.612917 17.839521 1.3277922 4288453967
31.614569 17.838057 1.3274394 4288782930
31.613863 17.839012 1.3258309 4289835361
31.61351 17.839491 1.3250265 4289703775
31.614809 17.838503 1.3238696 4289374813
31.615458 17.838009 1.3232911 4289440609
31.614101 17.839458 1.322261 4289769576
31.613396 17.840414 1.3206525 4290230129
31.614044 17.83992 1.320074 4290164080
31.613691 17.840399 1.3192697 4289768553
31.614317 17.838684 1.3179767 4290097773
31.615616 17.837698 1.3168198 4290361456
31.61426 17.839148 1.3157897 4289835109
31.587786 17.880657 1.2178 4292330885
31.588411 17.878944 1.2165071 4292396170
31.586054 17.881365 1.2152512 4291739783
31.585371 17.883541 1.2143571 4291544460
31.584017 17.884991 1.2133269 4291214985
31.58036 17.888401 1.2132281 4290951559
31.574699 17.893753 1.2126776 4291082891
31.573343 17.895203 1.2116475 4290556548
31.571987 17.896652 1.2106174 4289504376
31.571281 17.897608 1.2090088 4287333722
31.567945 17.902222 1.2082416 4285492031
31.565941 17.904165 1.2077901 4284571441
31.563583 17.906586 1.2065341 4283913769
31.564232 17.906094 1.2059557 4283519269
31.565178 17.905582 1.2039945 4283716653
31.564825 17.906061 1.2031902 4283584815
31.567125 17.904102 1.2022589 4283322156
31.568399 17.901894 1.2003876 4283716913
31.572351 17.89847 1.1991037 4283914039
31.575302 17.896015 1.197594 4284703302
31.576576 17.893808 1.1957227 4286413918
31.576872 17.893793 1.1943399 4286742881
31.576519 17.89427 1.1935356 4286151255
31.577818 17.893282 1.1923785 4286809182
31.57481 17.896198 1.1917012 4287664488
31.570473 17.901783 1.1907082 4288059499
31.556225 17.916162 1.1918314 4288388720
31.550589 17.922735 1.1919953 4288783734
31.544928 17.928087 1.1914448 4289441663
31.540268 17.932468 1.19112 4288520560
31.53791 17.934889 1.1898643 4289047417
31.53723 17.937065 1.1889701 4288323950
31.536877 17.937544 1.1881658 4285100091
31.534872 17.939487 1.1877142 4286284363
31.534164 17.940443 1.1861056 4286415952
31.535463 17.939455 1.1849487 4287402849
31.53511 17.939934 1.1841444 4288521071
31.533754 17.941383 1.1831143 4288586604
31.533401 17.94186 1.18231 4288914803
31.530691 17.944761 1.1802499 4287795817
31.530338 17.945238 1.1794456 4287335015
31.535917 17.939127 1.1770946 4287005286
31.537865 17.937647 1.1753591 4287860089
31.525919 17.950066 1.1755511 4290293406
31.522911 17.95298 1.1748737 4290753189
31.520554 17.955402 1.1736178 4290884263
31.513367 17.963591 1.1654761 4288055168
31.497318 17.985411 1.1357547 4291872195
31.497944 17.983696 1.1344618 4291872194
31.494608 17.98831 1.1336945 4291740607
31.494255 17.988789 1.1328902 4291740607
31.493902 17.989265 1.1320859 4291872192
31.610312 17.8444 1.3293478 4287006523
31.609959 17.844877 1.3285435 4287401279
31.611258 17.843891 1.3273866 4287796035
31.612885 17.841204 1.3263195 4288453708
31.612532 17.841682 1.3255152 4288914259
31.611176 17.843132 1.3244852 4288980055
31.612474 17.842144 1.3233281 4289111644
31.61277 17.842129 1.3219454 4289440611
31.611416 17.843578 1.3209153 4289637992
31.611063 17.844057 1.320111 4289966701
31.61236 17.843069 1.3189541 4290163311
31.613659 17.842081 1.3177971 4290624117
31.614309 17.841587 1.3172185 4290887800
31.612953 17.843037 1.3161885 4290361453
31.612247 17.843992 1.31458 4290164072
31.614548 17.842033 1.3136488 4290558832
31.616848 17.840075 1.3127176 4290229870
31.616495 17.840551 1.3119133 4289834867
31.616142 17.84103 1.3111091 4289374328
31.616768 17.839315 1.3098161 4289111171
31.618065 17.838329 1.3086591 4289308565
31.616711 17.839779 1.3076291 4289308573
31.614023 17.843899 1.3062834 4290492853
31.617655 17.83927 1.3056678 4290953405
31.62261 17.834871 1.3046097 4291939788
31.609461 17.858538 1.2212487 4288651342
31.600168 17.868519 1.2213138 4289110866
31.599813 17.868998 1.2205095 4289965148
31.597754 17.871403 1.2178708 4292002684
31.595747 17.873346 1.2174193 4290883439
31.595041 17.874302 1.2158107 4290882931
31.593037 17.876245 1.2153591 4290358130
31.590351 17.880365 1.2140135 4290557565
31.590975 17.878651 1.2127205 4291017606
31.590622 17.879129 1.2119162 4290819973
31.590918 17.879112 1.2105335 4291477649
31.58428 17.886658 1.2104716 4291609236
31.580271 17.890545 1.2095684 4291543959
31.578915 17.891994 1.2085383 4291412888
31.576582 17.895636 1.2079968 4290689678
31.571922 17.900017 1.2076722 4289900674
31.567913 17.903904 1.206769 4288453486
31.566557 17.905354 1.2057389 4287203677
31.566204 17.905832 1.2049347 4285822029
31.56485 17.907282 1.2039046 4285229640
31.56249 17.909702 1.2026488 4284506430
31.562788 17.909687 1.2012659 4284243257
31.563437 17.909193 1.2006875 4284243004
31.566387 17.90674 1.1991777 4284505923
31.569338 17.904287 1.1976681 4285427023
31.56863 17.905243 1.1960596 4285624400
31.568277 17.905722 1.1952553 4284045879
31.566921 17.907171 1.1942252 4284045876
31.562263 17.911551 1.1939005 4285690698
31.558254 17.915438 1.1929973 4286480467
31.55427 17.920546 1.1928086 4286678102
31.55191 17.922968 1.1915528 4286875737
31.548256 17.926376 1.1914538 4287336287
31.543243 17.931234 1.1903249 4288323181
31.541912 17.933905 1.1900092 4288718452
31.539555 17.936327 1.1887534 4289508224
31.53755 17.938271 1.1883017 4288323948
31.538849 17.937283 1.1871448 4285231675
31.536489 17.939703 1.1858889 4285034299
31.532835 17.943113 1.1857901 4287534435
31.533131 17.943096 1.1844072 4288586864
31.532778 17.943575 1.1836029 4288389225
31.530418 17.945997 1.1823471 4288454252
31.531069 17.945503 1.1817687 4287532640
31.528061 17.948418 1.1810912 4287006301
31.527355 17.949373 1.1794826 4286479706
31.527002 17.949852 1.1786784 4288584318
31.520546 17.958305 1.1728597 4291344562
31.520193 17.958782 1.1720554 4291476151
31.519838 17.959261 1.1712511 4291149232
31.517834 17.961205 1.1707995 4290888105
31.517128 17.96216 1.1691909 4291150503
31.516775 17.962639 1.1683866 4290755227
31.515419 17.964088 1.1673565 4290096279
31.514065 17.965538 1.1663264 4286674025
31.512709 17.966988 1.1652964 4290621095
31.502594 17.982218 1.1340283 4291674815
31.496933 17.987572 1.1334778 4291674814
31.497581 17.987078 1.1328993 4291740607
31.493572 17.990965 1.1319962 4291872192
31.612638 17.84366 1.3291311 4288518265
31.611282 17.84511 1.328101 4288057962
31.611931 17.844616 1.3275225 4287597659
31.61323 17.84363 1.3263656 4287466066
31.611874 17.845079 1.3253355 4287663695
31.610519 17.846529 1.3243054 4287532360
31.611818 17.845541 1.3231485 4287729734
31.613115 17.844553 1.3219914 4288321870
31.611761 17.846003 1.3209614 4288453454
31.611408 17.846481 1.3201572 4288847959
31.611053 17.846958 1.3193529 4289308002
31.612352 17.845972 1.3181958 4289374051
31.613979 17.843287 1.3171288 4289637735
31.611622 17.845707 1.3158729 4289769318
31.611269 17.846186 1.3150686 4290295660
31.613569 17.844225 1.3141375 4290493037
31.614868 17.843239 1.3129804 4290295912
31.615164 17.843222 1.3115977 4290229864
31.614811 17.8437 1.3107934 4290098279
31.61611 17.842712 1.3096365 4289769316
31.61841 17.840754 1.3087052 4289572197
31.618057 17.84123 1.3079009 4289637992
31.616701 17.84268 1.3068708 4289901166
31.616999 17.842665 1.3054881 4289703529
31.619627 17.839008 1.3046467 4289769321
31.61529 17.844593 1.3036537 4289965431
31.60886 17.861471 1.2232561 4287073596
31.608154 17.862427 1.2216476 4286875449
31.60615 17.86437 1.2211959 4287729476
31.60214 17.868258 1.2202928 4288846420
31.602436 17.868242 1.21891 4289305690
31.602083 17.868719 1.2181057 4288120135
31.600727 17.870169 1.2170757 4289172055
31.600021 17.871126 1.2154671 4289828959
31.599669 17.871603 1.2146628 4289435485
31.597309 17.874025 1.2134069 4289370976
31.596628 17.876202 1.2125129 4291608197
31.597254 17.874487 1.2112199 4291345284
31.595898 17.875937 1.2101898 4290950787
31.596193 17.875921 1.208807 4290884998
31.590557 17.882494 1.208971 4290885515
31.586548 17.886381 1.2080678 4290820240
31.585192 17.887831 1.2070377 4289833350
31.580206 17.893909 1.2066232 4288188786
31.575546 17.898291 1.2062985 4287662447
31.571537 17.902178 1.2053953 4289175947
31.570181 17.903627 1.2043653 4290623649
31.567823 17.906048 1.2031094 4290294941
31.56484 17.910185 1.2031465 4287860858
31.564135 17.91114 1.2015378 4286742635
31.564783 17.910646 1.2009593 4285952613
31.561424 17.91404 1.1994777 4286281072
31.563725 17.912081 1.1985465 4286412660
31.56435 17.910366 1.1972536 4285359974
31.563667 17.912542 1.1963595 4285359975
31.56131 17.914963 1.1951036 4287860110
31.557653 17.918373 1.1950047 4289044383
31.555296 17.920794 1.1937488 4288649624
31.553291 17.922737 1.1932973 4289373345
31.549282 17.926624 1.192394 4289702308
31.547598 17.929773 1.1912742 4289899686
31.543941 17.933182 1.1911752 4290426028
31.542585 17.934631 1.1901451 4290426283
31.541231 17.936081 1.189115 4290821040
31.539227 17.938025 1.1886635 4289899937
31.538519 17.93898 1.187055 4289899936
31.540821 17.937021 1.1861237 4288584589
31.534157 17.943346 1.1853474 4287466620
31.532825 17.946016 1.1850318 4286742893
31.531471 17.947466 1.1840017 4286742633
31.528463 17.95038 1.1833243 4288584579
31.527107 17.95183 1.1822942 4287268461
31.527758 17.951336 1.1817158 4285754972
31.51951 17.960958 1.1711612 4290557360
31.61396 17.843893 1.3286886 4292466093
31.611603 17.846315 1.3274328 4292137376
31.612902 17.845327 1.3262758 4291282060
31.61355 17.844833 1.3256973 4290295415
31.610189 17.848227 1.3242155 4289045599
31.609837 17.848705 1.3234113 4288124492
31.61314 17.845774 1.3227059 4287663940
31.613436 17.845758 1.3213232 4287400766
31.612082 17.847208 1.3202931 4287663685
31.611729 17.847685 1.3194888 4287926349
31.612024 17.84767 1.3181061 4288387156
31.613323 17.846682 1.316949 4288914012
31.614975 17.845217 1.3165964 4289045595
31.615271 17.845201 1.3152136 4289506144
31.614918 17.845678 1.3144093 4289637728
31.616215 17.84469 1.3132523 4289835361
31.615862 17.845169 1.312448 4289900899
31.615156 17.846125 1.3108395 4289637728
31.615131 17.844904 1.310125 4289637730
31.61643 17.843918 1.3089681 4289637990
31.616077 17.844395 1.3081638 4289966957
31.615372 17.84535 1.3065553 4289966959
31.615017 17.845829 1.305751 4289769322
31.615314 17.845814 1.3043681 4289769321
31.614962 17.846291 1.303564 4290294396
31.610952 17.850178 1.3026607 4290556300
31.61343 17.855865 1.2452717 4286614605
31.61072 17.858765 1.2432115 4287601226
31.599422 17.870691 1.2428249 4287403838
31.598717 17.871647 1.2412164 4287469624
31.599365 17.871153 1.2406379 4287337778
31.606949 17.863098 1.2387384 4287205932
31.615208 17.85577 1.2369751 4287008300
31.619135 17.851126 1.2349768 4287073584
31.622438 17.848194 1.2342713 4287139380
31.621733 17.84915 1.2326628 4286875699
31.614658 17.856415 1.2288952 4285824550
31.613304 17.857864 1.2278651 4285495586
31.6136 17.857849 1.2264823 4285232415
31.613247 17.858326 1.225678 4285166623
31.609911 17.86294 1.2249107 4285035038
31.609205 17.863895 1.2233022 4284968220
31.607849 17.865345 1.2222722 4285362210
31.607496 17.865824 1.2214679 4286150444
31.60614 17.867273 1.2204378 4286872630
31.604786 17.868723 1.2194077 4288121416
31.60343 17.870173 1.2183776 4288843858
31.603725 17.870157 1.2169949 4289632606
31.604023 17.87014 1.2156122 4290486889
31.603668 17.870619 1.2148077 4290356587
31.602962 17.871574 1.2131993 4288186702
31.60261 17.872053 1.212395 4291410818
31.602257 17.87253 1.2115906 4292069007
31.600901 17.87398 1.2105606 4290884994
31.598543 17.876402 1.2093047 4290292861
31.59819 17.876881 1.2085004 4289569655
31.59483 17.880274 1.2070187 4288188520
31.591173 17.883682 1.2069199 4286806872
31.587837 17.888296 1.2061527 4288122993
31.582827 17.893154 1.2050236 4290491546
31.57917 17.896564 1.2049248 4291083944
31.574183 17.902643 1.2045102 4290755235
31.570173 17.90653 1.2036071 4290558113
31.565516 17.91091 1.2032824 4287729272
31.56646 17.9104 1.2013211 4286018912
31.566107 17.910879 1.2005168 4284373581
31.560446 17.916231 1.1999663 4288452241
31.561094 17.915737 1.1993879 4290557619
31.563044 17.914257 1.1976525 4290162863
31.560684 17.916677 1.1963965 4289965485
31.55868 17.918621 1.1959449 4290886588
31.556322 17.921043 1.194689 4290886587
31.553341 17.925179 1.1947261 4290820793
31.551985 17.926628 1.193696 4290754998
31.547976 17.930515 1.1927929 4290754996
31.546619 17.931965 1.1917628 4290491823
31.543613 17.934879 1.1910853 4290754993
31.542257 17.936329 1.1900553 4290557869
31.540901 17.937778 1.1890252 4290294696
31.540573 17.939478 1.1889354 4290623660
31.539867 17.940434 1.1873268 4290886831
31.612539 17.848707 1.3247132 4291611332
31.612186 17.849186 1.323909 4290690479
31.611481 17.850142 1.3223004 4290164131
31.611128 17.85062 1.3214961 4289571734
31.607119 17.854507 1.320593 4288584825
31.608416 17.853519 1.3194361 4287861088
31.610718 17.851561 1.3185048 4287532120
31.611341 17.849846 1.3172119 4287203408
31.613644 17.847887 1.3162807 4287269197
31.614941 17.846899 1.3151238 4287861587
31.617243 17.84494 1.3141925 4288453462
31.617891 17.844446 1.313614 4288782422
31.618187 17.844429 1.3122313 4288979799
31.616833 17.845879 1.3112012 4289374810
31.615477 17.84733 1.3101711 4289571676
31.615772 17.847313 1.3087884 4289966177
31.615419 17.847792 1.3079841 4290229352
31.615067 17.848269 1.3071798 4289966182
31.61371 17.84972 1.3061497 4290229102
31.611353 17.85214 1.3048939 4290360692
31.612652 17.851152 1.3037369 4290294896
31.6133 17.850658 1.3031584 4290229100
31.614599 17.849672 1.3020014 4289900136
31.611889 17.852571 1.2999413 4289637222
31.608528 17.855965 1.2984596 4289374563
31.609827 17.854977 1.2973026 4288979803
31.607117 17.857876 1.2952424 4288387921
31.606764 17.858355 1.2944382 4288453714
31.607059 17.858337 1.2930554 4288454229
31.608358 17.857351 1.2918984 4288454488
31.631884 17.837435 1.2523273 4288127313
31.634832 17.83498 1.2508177 4287930196
31.639788 17.830584 1.2497596 4287403601
31.641062 17.828377 1.2478881 4283784990
31.642361 17.827389 1.2467312 4282139913
31.632065 17.838343 1.2465703 4283455777
31.625072 17.846365 1.2457043 4283521313
31.620062 17.851223 1.2445754 4285100089
31.614401 17.856577 1.2440249 4286745163
31.611065 17.861189 1.2432576 4286416448
31.607056 17.865076 1.2423544 4286350648
31.604698 17.867498 1.2410985 4286087726
31.605347 17.867004 1.24052 4285956139
31.605642 17.866989 1.2391373 4285890345
31.609596 17.863564 1.2378534 4285627174
31.61087 17.861355 1.2359819 4285495589
31.614822 17.857931 1.2346982 4285429540
31.617771 17.855478 1.2331884 4285100063
31.617418 17.855955 1.2323842 4284771357
31.618717 17.854967 1.2312272 4284574493
31.61636 17.857389 1.2299713 4284705828
31.615004 17.858839 1.2289413 4284508712
31.613649 17.860289 1.2279111 4284113957
31.613297 17.860767 1.2271069 4283982119
31.61194 17.862217 1.2260768 4284047656
31.610584 17.863667 1.2250468 4283981608
31.609879 17.864622 1.2234381 4284243498
31.608522 17.866072 1.2224081 4284505645
31.60817 17.86655 1.2216039 4284701743
31.607464 17.867506 1.2199953 4285292344
31.607111 17.867985 1.219191 4286475334
31.605755 17.869434 1.2181609 4287921753
31.604399 17.870884 1.2171308 4291802511
31.605698 17.869896 1.2159739 4291078272
31.606997 17.868908 1.2148168 4291736459
31.606291 17.869864 1.2132083 4288908130
31.605938 17.870342 1.212404 4289500784
31.60523 17.871298 1.2107954 4291278225
31.605881 17.870804 1.210217 4291015573
31.605175 17.871759 1.2086084 4289239683
31.601164 17.875647 1.2077053 4288252534
31.59981 17.877096 1.2066752 4289042052
31.596802 17.880013 1.2059977 4291475887
31.591814 17.886091 1.2055832 4292396226
31.616264 17.847132 1.3146812 4287269188
31.619215 17.844679 1.3131715 4287400769
31.619864 17.844185 1.3125931 4287729732
31.620159 17.844168 1.3112103 4288058950
31.617153 17.847084 1.3105329 4288913746
31.614796 17.849504 1.3092771 4289571419
31.614441 17.849983 1.3084728 4290031973
31.614738 17.849968 1.3070899 4290426733
31.616037 17.84898 1.305933 4290887032
31.615683 17.849459 1.3051287 4290821243
31.611673 17.853344 1.3042256 4290689654
31.610968 17.854301 1.302617 4290426479
31.608963 17.856245 1.3021654 4289900136
31.610262 17.855257 1.3010083 4289505379
31.611561 17.854269 1.2998514 4289571429
31.6082 17.857662 1.2983698 4289440356
31.607847 17.858141 1.2975655 4288914010
31.609146 17.857153 1.2964085 4288256335
31.610443 17.856165 1.2952515 4287795784
31.609089 17.857615 1.2942215 4287861577
31.608736 17.858093 1.2934172 4287862092
31.610033 17.857105 1.2922602 4287730765
31.60968 17.857584 1.2914559 4287730771
31.606321 17.860977 1.2899743 4287993947
31.611868 17.856548 1.2861507 4288190835
31.613167 17.85556 1.2849936 4288388212
31.613791 17.853846 1.2837007 4288651382
31.604099 17.867064 1.2684565 4288717133
31.602743 17.868513 1.2674264 4288783439
31.604042 17.867525 1.2662693 4288454731
31.603689 17.868004 1.265465 4288323404
31.606558 17.864792 1.2610539 4288191820
31.605202 17.866241 1.2600238 4287797060
31.606501 17.865253 1.2588669 4287468605
31.611103 17.861336 1.2570045 4287205687
31.613731 17.857677 1.2561632 4286745395
31.615679 17.856195 1.2544277 4286811447
31.617981 17.854237 1.2534965 4286614074
31.619928 17.852757 1.2517611 4286285371
31.622229 17.850796 1.2508299 4286745671
31.623856 17.84811 1.2497628 4286285124
31.624153 17.848095 1.2483799 4284903219
31.622797 17.849545 1.24735 4286153290
31.61846 17.855129 1.2463568 4285692482
31.615452 17.858046 1.2456795 4284836917
31.615747 17.858028 1.2442967 4285166131
31.612741 17.860945 1.2436193 4285034795
31.610384 17.863365 1.2423635 4284640030
31.607376 17.866282 1.2416861 4284442901
31.607672 17.866264 1.2403033 4284311314
31.609974 17.864305 1.2393721 4284311313
31.61027 17.86429 1.2379893 4284179728
31.611568 17.863302 1.2368324 4283850764
31.612865 17.862314 1.2356753 4283587336
31.614813 17.860834 1.2339399 4283389445
31.616442 17.858147 1.2328728 4283389704
31.616737 17.858131 1.23149 4283192840
31.617033 17.858116 1.2301073 4283521554
31.615677 17.859566 1.2290772 4283784989
31.614323 17.861015 1.2280471 4284377129
31.61397 17.861494 1.2272428 4285034807
31.612614 17.862944 1.2262127 4285560895
31.611258 17.864393 1.2251827 4286218570
31.610552 17.865349 1.2235742 4287269976
31.610199 17.865828 1.2227699 4288321639
31.608843 17.867277 1.2217398 4289702011
31.608137 17.868233 1.2201313 4290621577
31.607784 17.86871 1.219327 4291409809
31.60808 17.868694 1.2179441 4292132505
31.607727 17.869173 1.2171398 4291078788
31.608023 17.869156 1.2157571 4289433447
31.609322 17.86817 1.2146001 4292789147
31.61891 17.847597 1.3137962 4287993699
31.619205 17.84758 1.3124133 4287796057
31.619856 17.847088 1.3118349 4287466829
31.6185 17.848537 1.3108047 4287334729
31.617144 17.849987 1.3097748 4287729486
31.615789 17.851437 1.3087447 4288847713
31.615084 17.852392 1.3071361 4290163062
31.615732 17.851898 1.3065577 4290623617
31.616028 17.851883 1.3051748 4290623365
31.614674 17.853333 1.3041447 4290295677
31.612314 17.855753 1.3028889 4289046632
31.612965 17.855259 1.3023103 4288191324
31.610607 17.857681 1.3010545 4287467603
31.610903 17.857666 1.2996718 4287401811
31.611551 17.857172 1.2990932 4287467605
31.610846 17.858128 1.2974848 4287401811
31.609489 17.859577 1.2964545 4287270224
31.611792 17.857618 1.2955234 4287007563
31.612415 17.855904 1.2942305 4287007817
31.610083 17.859545 1.2936891 4286942022
31.608727 17.860996 1.292659 4286810690
31.612005 17.856844 1.2912391 4286810690
31.614307 17.854885 1.290308 4286942276
31.611948 17.857306 1.2890521 4287139400
31.610594 17.858755 1.288022 4287270987
31.610241 17.859234 1.2872177 4287468617
31.610537 17.859219 1.2858349 4287665992
31.612837 17.857258 1.2849039 4287731785
31.614136 17.856272 1.2837468 4287863371
31.615435 17.855284 1.2825899 4287928907
31.614079 17.856733 1.2815598 4287994443
31.613726 17.857212 1.2807555 4287994701
31.615025 17.856224 1.2795985 4288060752
31.615591 17.854971 1.2761185 4288323666
31.615889 17.854956 1.2747358 4288652373
31.609898 17.862007 1.2740954 4288849752
31.608133 17.864397 1.270074 4287665478
31.607428 17.865353 1.2684654 4287599683
31.605421 17.867296 1.2680138 4287731269
31.60737 17.865814 1.2662784 4287402304
31.609999 17.862158 1.265437 4287204925
31.611298 17.86117 1.2642801 4287007546
31.611593 17.861153 1.2628974 4286876216
31.610239 17.862602 1.2618673 4286679349
31.609886 17.863081 1.261063 4286153005
31.609179 17.864037 1.2594544 4286087212
31.609829 17.863543 1.258876 4285758505
31.609121 17.8645 1.2572674 4285561384
31.612425 17.861568 1.256562 4285692973
31.614372 17.860086 1.2548265 4285297961
31.615671 17.859098 1.2536695 4284968999
31.615967 17.859083 1.2522868 4284969002
31.616617 17.858589 1.2517083 4284771373
31.617241 17.856874 1.2504153 4284574258
31.61854 17.855888 1.2492584 4284574514
31.617834 17.856844 1.2476498 4284377647
31.617481 17.857321 1.2468455 4284575026
31.614473 17.860237 1.2461681 4284575026
31.614769 17.860222 1.2447853 4283784999
31.614063 17.861177 1.2431768 4283455779
31.612709 17.862627 1.2421467 4283652648
31.612354 17.863104 1.2413424 4284047410
31.611 17.864553 1.2403123 4283915574
31.610647 17.865032 1.239508 4284047422
31.612595 17.86355 1.2377727 4284441931
31.614895 17.861591 1.2368414 4284968281
31.616194 17.860603 1.2356845 4285625961
31.618141 17.859123 1.2339491 4286546812
31.620441 17.857162 1.2330178 4287862160
31.619087 17.858612 1.2319877 4289308581
31.61838 17.85957 1.2303791 4289835183
31.618027 17.860046 1.2295749 4290295992
31.610191 17.868729 1.2220117 4291017658
31.611729 17.868189 1.2172849 4292461745
31.61923 17.848801 1.3131279 4289704054
31.619526 17.848785 1.311745 4288651103
31.620176 17.848291 1.3111665 4288584796
31.618467 17.85022 1.3093321 4288124244
31.618114 17.850697 1.3085279 4287860818
31.616758 17.852146 1.3074979 4288649823
31.615404 17.853596 1.3064678 4289307757
31.615051 17.854074 1.3056635 4289702263
31.614344 17.85503 1.3040549 4289571954
31.612989 17.85648 1.3030249 4288388702
31.61529 17.854521 1.3020936 4287599187
31.618593 17.851589 1.3013883 4287007052
31.617237 17.853039 1.3003582 4286809674
31.615881 17.854488 1.2993281 4286678089
31.615175 17.855446 1.2977195 4286414916
31.614822 17.855923 1.2969153 4286151743
31.61447 17.856401 1.296111 4285889082
31.614765 17.856384 1.2947283 4285757750
31.614412 17.856863 1.2939239 4285691955
31.612055 17.859285 1.2926681 4285626416
31.611702 17.859762 1.2918637 4285626416
31.614002 17.857803 1.2909325 4285626416
31.613297 17.858759 1.289324 4285626161
31.61194 17.860209 1.288294 4285823541
31.612591 17.859715 1.2877154 4286021171
31.610882 17.861643 1.285881 4286152753
31.612534 17.860178 1.2855284 4286218546
31.613157 17.858463 1.2842355 4286350132
31.613453 17.858448 1.2828528 4286349875
31.614752 17.85746 1.2816957 4286349618
31.614399 17.857937 1.2808914 4286284083
31.613693 17.858894 1.2792828 4286350134
31.612337 17.860344 1.2782528 4286481720
31.611984 17.860821 1.2774485 4286876478
31.610628 17.86227 1.2764184 4286744634
31.610275 17.862749 1.2756141 4286875962
31.60957 17.863705 1.2740057 4286810169
31.609217 17.864183 1.2732013 4286546484
31.608864 17.86466 1.272397 4286217777
31.607508 17.86611 1.271367 4286152241
31.606153 17.867559 1.2703369 4286152239
31.608101 17.866079 1.2686014 4286020651
31.609398 17.865091 1.2674444 4285954858
31.609045 17.865568 1.2666402 4285560100
31.610344 17.864582 1.2654831 4285494307
31.611643 17.863594 1.2643262 4285231135
31.612942 17.862606 1.2631692 4285231391
31.612589 17.863085 1.262365 4285363489
31.611881 17.86404 1.2607564 4285166110
31.612532 17.863546 1.2601779 4284968731
31.611824 17.864502 1.2585694 4284640024
31.611471 17.864981 1.2577651 4284311317
31.611769 17.864964 1.2563822 4284245527
31.612392 17.863251 1.2550894 4283916308
31.613691 17.862263 1.2539324 4283916311
31.613987 17.862247 1.2525496 4283718935
31.614637 17.861753 1.2519711 4283652892
31.61393 17.862709 1.2503625 4283521570
31.616232 17.86075 1.2494314 4283916584
31.617529 17.859762 1.2482744 4283588131
31.617826 17.859747 1.2468916 4283851303
31.61647 17.861197 1.2458615 4284311854
31.616766 17.861179 1.2444788 4285035066
31.617416 17.860687 1.2439003 4285297983
31.61606 17.862137 1.2428702 4285363266
31.615355 17.863092 1.2412617 4285100098
31.616003 17.862598 1.2406832 4284902469
31.615297 17.863554 1.2390746 4284376387
31.613941 17.865004 1.2380445 4283718208
31.61524 17.864016 1.2368876 4283652421
31.616867 17.86133 1.2358204 4285033824
31.620201 17.849512 1.3118809 4287072384
31.62085 17.849018 1.3113025 4289440419
31.620792 17.84948 1.3091154 4290822062
31.619438 17.850929 1.3080853 4289243278
31.616077 17.854322 1.3066037 4288782972
31.614393 17.857471 1.3054837 4288980596
31.614368 17.856251 1.3047693 4288783984
31.614664 17.856236 1.3033866 4287732063
31.614962 17.856218 1.3020039 4286942548
31.616611 17.854753 1.3016511 4286218570
31.618914 17.852795 1.3007199 4285889607
31.618208 17.85375 1.2991114 4285692230
31.616852 17.8552 1.2980813 4285363268
31.616499 17.855679 1.297277 4285034564
31.617798 17.854691 1.29612 4284968773
31.617443 17.855167 1.2953157 4284507968
31.615086 17.85759 1.2940599 4284179515
31.61438 17.858545 1.2924513 4283982392
31.614027 17.859024 1.2916471 4283916596
31.613674 17.859501 1.2908428 4283916849
31.612967 17.860456 1.2892342 4284048432
31.612614 17.860935 1.2884299 4284048428
31.613913 17.859947 1.2872729 4283916845
31.61356 17.860426 1.2864686 4283982640
31.613207 17.860903 1.2856643 4283785262
31.612501 17.86186 1.2840558 4283785263
31.61315 17.861366 1.2834773 4283851056
31.612444 17.862322 1.2818687 4283851056
31.613092 17.861828 1.2812902 4283916848
31.613388 17.861813 1.2799075 4284048433
31.613686 17.861795 1.2785246 4284245555
31.613331 17.862274 1.2777205 4284508214
31.611977 17.863724 1.2766904 4284179250
31.611624 17.864202 1.2758861 4284047665
31.611919 17.864185 1.2745032 4284047665
31.611567 17.864664 1.273699 4284047665
31.610861 17.86562 1.2720904 4284179251
31.609505 17.867069 1.2710603 4284310837
31.609152 17.867548 1.2702562 4284376374
31.610451 17.86656 1.2690991 4284310582
31.611074 17.864845 1.2678062 4284178484
31.61137 17.86483 1.2664233 4284244021
31.611017 17.865309 1.265619 4284244024
31.612316 17.864321 1.2644621 4284177978
31.613615 17.863333 1.2633052 4284244032
31.613911 17.863317 1.2619224 4284573259
31.613558 17.863794 1.2611182 4284836181
31.613205 17.864273 1.2603139 4284178258
31.613501 17.864258 1.258931 4284309593
31.613148 17.864735 1.2581267 4284572515
31.612442 17.86569 1.2565182 4284967274
31.613386 17.865181 1.254557 4286020218
31.613684 17.865166 1.2531742 4286349439
31.613979 17.86515 1.2517914 4285824116
31.614628 17.864656 1.251213 4286022514
31.615927 17.863668 1.2500559 4285627754
31.616552 17.861954 1.248763 4285759338
31.617849 17.860966 1.247606 4285694055
31.619726 17.853817 1.3059444 4288585838
31.61837 17.855267 1.3049144 4287599710
31.618666 17.855251 1.3035315 4287337305
31.618313 17.855728 1.3027272 4286350411
31.618608 17.855713 1.3013445 4285626433
31.618584 17.854492 1.3006301 4285363263
31.620886 17.852533 1.2996988 4285165886
31.621181 17.852516 1.2983161 4284836924
31.618824 17.854939 1.2970603 4284508220
31.619473 17.854445 1.2964817 4284245050
31.620771 17.853456 1.2953248 4283850038
31.618414 17.855879 1.2940689 4283389999
31.616056 17.858299 1.2928131 4283061290
31.615704 17.858778 1.2920088 4283061287
31.615349 17.859257 1.2912045 4283061540
31.614643 17.860212 1.2895958 4283061537
31.61429 17.860689 1.2887917 4283061533
31.614586 17.860674 1.2874088 4283061536
31.615236 17.86018 1.2868304 4283061538
31.614529 17.861135 1.2852218 4282995746
31.614176 17.861614 1.2844175 4282929954
31.613823 17.862093 1.2836132 4282929954
31.613117 17.863049 1.2820046 4282929954
31.612764 17.863525 1.2812004 4282929953
31.61306 17.86351 1.2798176 4282864159
31.613708 17.863016 1.2792392 4282995488
31.613003 17.863972 1.2776306 4283389733
31.61265 17.86445 1.2768263 4283323941
31.611294 17.8659 1.2757962 4283389735
31.611591 17.865885 1.2744135 4283652907
31.61224 17.865391 1.2738349 4283916079
31.610884 17.86684 1.2728049 4284376630
31.610178 17.867796 1.2711964 4284902974
31.609825 17.868275 1.2703921 4285297476
31.611124 17.867287 1.269235 4285429063
31.612423 17.866299 1.2680781 4285823309
31.612719 17.866283 1.2666953 4286415190
31.613367 17.865789 1.2661167 4286941537
31.614666 17.864801 1.2649598 4287401835
31.615292 17.863087 1.2636669 4288060026
31.615587 17.863071 1.2622842 4288981390
31.615883 17.863056 1.2609013 4289639070
31.614527 17.864506 1.2598714 4290362800
31.614174 17.864983 1.2590669 4290625721
31.613821 17.865461 1.2582628 4291151815
31.614117 17.865446 1.2568799 4291612367
31.6227 17.852583 1.3051492 4287666024
31.622347 17.853062 1.3043449 4286285397
31.621641 17.854017 1.3027363 4285495879
31.62229 17.853523 1.3021579 4284969534
31.622585 17.853508 1.3007751 4284706361
31.622232 17.853987 1.2999707 4284180016
31.622528 17.85397 1.298588 4283916589
31.623827 17.852982 1.297431 4283850284
31.623474 17.85346 1.2966268 4283652909
31.622118 17.85491 1.2955967 4283455534
31.620764 17.856359 1.2945666 4283060526
31.619408 17.857809 1.2935365 4282731312
31.618702 17.858765 1.2919279 4282731060
31.618349 17.859243 1.2911237 4282730810
31.615992 17.861666 1.2898678 4282796350
31.615637 17.862143 1.2890636 4283125318
31.615934 17.862127 1.2876807 4283519569
31.613644 17.866381 1.2762939 4290032820
31.612289 17.86783 1.2752639 4290559164
31.611582 17.868786 1.2736553 4290888129
31.611559 17.867567 1.2729409 4291019714
31.610851 17.868523 1.2713323 4291085506
31.623669 17.853294 1.3039024 4284969537
31.622314 17.854744 1.3028723 4284311605
31.620958 17.856194 1.3018422 4283851053
31.622257 17.855206 1.3006852 4283719466
31.622906 17.854712 1.3001068 4283522086
31.621552 17.856161 1.2990767 4283324452
31.621847 17.856146 1.297694 4283192354
31.623146 17.855158 1.2965369 4283126565
31.622793 17.855637 1.2957326 4282666018
31.620434 17.858057 1.2944767 4282797354
31.61908 17.859509 1.2934467 4283520828
31.619375 17.859491 1.292064 4285099608
31.619022 17.85997 1.2912596 4287007355
31.61867 17.860447 1.2904553 4288717720
31.617313 17.861897 1.2894253 4289901997
31.617609 17.861881 1.2880425 4290493627
31.613201 17.869003 1.27183 4292203987
