# .PCD v0.7 - Point Cloud Data file format
VERSION 0.7
FIELDS x y z rgba
SIZE 4 4 4 4
TYPE F F F U
COUNT 1 1 1 1
WIDTH 549
HEIGHT 1
VIEWPOINT 0 0 0 1 0 0 0
POINTS 549
DATA ascii
31.497906 18.450748 0.71327233 4291739510
31.501368 18.444136 0.73144615 4287009131
31.501986 18.445324 0.72939503 4287468894
31.503225 18.444799 0.72605097 4287665229
31.504845 18.445015 0.7242257 4287664453
31.504787 18.445477 0.72203863 4288058178
31.504435 18.445955 0.72123432 4288123714
31.503729 18.446911 0.71962577 4288320323
31.503376 18.44739 0.71882147 4289503055
31.503319 18.447851 0.71663445 4290291286
31.502966 18.44833 0.71583015 4290883424
31.501963 18.449301 0.71560436 4291409769
31.501257 18.450256 0.71399581 4291475302
31.500904 18.450735 0.71319151 4291672421
31.499901 18.451706 0.71296573 4292461170
31.499846 18.452169 0.71077865 4292855418
31.499491 18.452646 0.70997441 4292986232
31.498531 18.445663 0.7373299 4287208056
31.500151 18.445881 0.73550463 4287404918
31.500744 18.44585 0.73273903 4287469682
31.500389 18.446327 0.73193473 4287732066
31.502306 18.446527 0.72872669 4287994194
31.502249 18.446991 0.72653961 4288256590
31.501896 18.447468 0.72573537 4288781901
31.503811 18.44767 0.72252727 4289044816
31.503458 18.448147 0.72172302 4289504597
31.50275 18.449102 0.72011441 4290621536
31.503048 18.449087 0.7187317 4290949216
31.502991 18.449549 0.71654457 4290883424
31.502638 18.450027 0.71574032 4290686046
31.503254 18.451216 0.71368921 4290751579
31.502901 18.451694 0.71288496 4290817112
31.502548 18.452171 0.71208066 4290553173
31.503139 18.452141 0.70931512 4290618456
31.503082 18.452602 0.70712805 4291144028
31.502729 18.453081 0.70632374 4291801187
31.498966 18.445944 0.7410357 4287994960
31.499262 18.445929 0.73965287 4288520787
31.49826 18.446901 0.73942715 4288388170
31.498852 18.446869 0.73666155 4288453707
31.500118 18.447563 0.73403198 4288847696
31.500414 18.447548 0.73264921 4288781646
31.50168 18.448242 0.73001963 4289044048
31.501976 18.448227 0.72863686 4289701209
31.50127 18.449183 0.72702831 4290160990
31.503185 18.449383 0.72382021 4290357845
31.502832 18.449862 0.7230159 4290488908
31.502775 18.450323 0.72082889 4290750545
31.503071 18.450308 0.71944612 4290749265
31.504337 18.451002 0.71681648 4291078491
31.506252 18.451204 0.71360844 4290486872
31.506548 18.451187 0.71222562 4290487641
31.506493 18.451651 0.7100386 4290949218
31.506788 18.451633 0.70865583 4291014758
31.508999 18.451818 0.70406497 4290948968
31.510618 18.452036 0.70223969 4290882410
31.494808 18.447241 0.74736196 4288193116
31.496723 18.447441 0.74415386 4287994960
31.497988 18.448137 0.74152434 4288126029
31.497635 18.448614 0.74072003 4288124998
31.498877 18.44809 0.73737597 4288453707
31.500496 18.448305 0.7355507 4289045075
31.49979 18.449263 0.73394215 4289176404
31.501705 18.449463 0.73073405 4289373013
31.502001 18.449448 0.72935128 4289635416
31.501295 18.450403 0.72774273 4289568853
31.502914 18.450619 0.7259174 4289634122
31.503506 18.450588 0.72315186 4290028357
31.503448 18.45105 0.72096479 4290026822
31.504419 18.451761 0.71971798 4290617679
31.507633 18.450974 0.71535295 4290223182
31.508224 18.450943 0.71258736 4290421079
31.510139 18.451143 0.70937932 4289763918
31.512054 18.451344 0.70617121 4289172807
31.513969 18.451546 0.70296317 4289501519
31.514267 18.451529 0.70158041 4289106764
31.51314 18.429266 0.77463585 4289442128
31.512434 18.430223 0.7730273 4289113415
31.510782 18.431688 0.77337998 4289047372
31.510429 18.432165 0.77257568 4288718412
31.508753 18.432411 0.77221394 4288718413
31.507397 18.433861 0.77118385 4288850000
31.506395 18.434834 0.77095807 4288652368
31.506691 18.434816 0.7695753 4288586578
31.474556 18.45125 0.77479911 4290423325
31.477119 18.450956 0.77101254 4289963033
31.481007 18.450897 0.76678348 4289437989
31.483572 18.450603 0.76299691 4288321065
31.486786 18.449818 0.75863183 4287860267
31.49 18.44903 0.7542668 4288320572
31.491264 18.449726 0.75163716 4288781127
31.494478 18.448938 0.74727213 4289109841
31.497044 18.448647 0.74348557 4289241168
31.496336 18.449602 0.74187702 4288714565
31.498606 18.449326 0.73947322 4289240904
31.500521 18.449526 0.73626512 4289372485
31.499517 18.450499 0.73603934 4289503559
31.502083 18.450205 0.73225278 4289634889
31.502026 18.450666 0.7300657 4289700180
31.501673 18.451145 0.7292614 4289436507
31.501616 18.451607 0.72707438 4289567341
31.502882 18.452301 0.72444481 4289632381
31.50515 18.452024 0.72204101 4288711797
31.510574 18.451424 0.71308511 4288514944
31.513788 18.450636 0.70872003 4288317574
31.515703 18.450838 0.70551193 4288317834
31.51387 18.429531 0.77695882 4289572182
31.513517 18.43001 0.77615458 4289310289
31.513165 18.430487 0.77535027 4289178956
31.512457 18.431442 0.77374172 4289047622
31.511456 18.432415 0.77351594 4288784200
31.510452 18.433386 0.77329016 4288784205
31.508778 18.433632 0.77292842 4289178964
31.50807 18.434587 0.77131981 4289244758
31.507069 18.435558 0.77109402 4288981333
31.506065 18.436531 0.77086824 4288981336
31.505713 18.43701 0.77006394 4289244505
31.503387 18.437748 0.77028072 4289441624
31.502031 18.439198 0.76925063 4289638487
31.499058 18.440432 0.77004588 4289440850
31.495787 18.441679 0.77222383 4289571403
31.489246 18.444178 0.77657986 4289965641
31.473131 18.450867 0.78390002 4292265538
31.47213 18.451839 0.78367424 4292396605
31.471777 18.452316 0.78286994 4292462137
31.472368 18.452286 0.7801044 4292133429
31.472015 18.452763 0.77930015 4291738927
31.473282 18.453457 0.77667052 4291541806
31.474228 18.452948 0.77470928 4291278893
31.476791 18.452656 0.77092272 4290490677
31.479357 18.452362 0.76713616 4289636925
31.482594 18.452797 0.76348549 4288847162
31.486753 18.4515 0.75715923 4287794228
31.488373 18.451717 0.7553339 4286412579
31.491585 18.45093 0.75096887 4286872879
31.49577 18.450853 0.74535698 4288451652
31.495417 18.451332 0.74455273 4288846151
31.498629 18.450544 0.74018764 4289109318
31.502516 18.450485 0.73595852 4289372485
31.500191 18.451223 0.7361753 4289503559
31.514954 18.429317 0.7800861 4288849997
31.514601 18.429794 0.77928185 4289244753
31.514248 18.430273 0.77847755 4289179729
31.513542 18.431229 0.776869 4289246035
31.513187 18.431707 0.77606469 4289114451
31.512835 18.432184 0.77526045 4289114453
31.51148 18.433636 0.77423036 4289048402
31.510477 18.434607 0.77400458 4289245523
31.509476 18.435577 0.77377874 4289047633
31.509121 18.436056 0.77297449 4288981586
31.507093 18.436779 0.77180845 4289310550
31.506741 18.437258 0.7710042 4289442135
31.505737 18.438229 0.77077842 4289245274
31.503412 18.438969 0.77099514 4289179999
31.502409 18.439939 0.7707693 4289441365
31.473509 18.451609 0.78541875 4293316691
31.472507 18.452581 0.78519297 4293185101
31.470831 18.452826 0.78483123 4293185099
31.471802 18.453537 0.78358442 4293053511
31.471745 18.453999 0.78139734 4293250633
31.471392 18.454477 0.78059304 4292921412
31.471687 18.454462 0.77921027 4292526399
31.472954 18.455156 0.77658069 4292262972
31.473545 18.455124 0.77381516 4291868207
31.475813 18.454847 0.77141136 4291605285
31.478378 18.454554 0.7676248 4290421529
31.480942 18.454262 0.76383823 4289500689
31.482857 18.454462 0.76063013 4287988486
31.488043 18.453415 0.75524408 4286542336
31.492228 18.453339 0.74963218 4286674203
31.491873 18.453817 0.74882787 4287858761
31.497355 18.452753 0.74205905 4288582758
31.517155 18.427208 0.78781331 4288518252
31.516151 18.428179 0.78758752 4288781164
31.515799 18.428658 0.78678322 4288979305
31.515446 18.429136 0.78597897 4289111652
31.515388 18.429598 0.7837919 4288914776
31.515036 18.430075 0.78298765 4289178450
31.514978 18.430538 0.78080058 4289178962
31.514626 18.431015 0.77999628 4289178960
31.514273 18.431494 0.77919203 4289245522
31.513565 18.432449 0.77758348 4289311828
31.513212 18.432928 0.77677917 4289575002
31.512211 18.433899 0.77655339 4289114453
31.511503 18.434855 0.77494478 4288916816
31.510502 18.435827 0.774719 4289048144
31.509499 18.436798 0.77449322 4289047633
31.507824 18.437044 0.77413148 4289113172
31.506821 18.438015 0.77390569 4289113171
31.505466 18.439465 0.77287561 4288849998
31.518944 18.426039 0.79254919 4287930179
31.517588 18.427488 0.79151911 4288061766
31.516586 18.428459 0.79129332 4287666754
31.516882 18.428444 0.7899105 4288061770
31.515526 18.429893 0.78888047 4288522580
31.515173 18.430372 0.78807616 4288718672
31.51482 18.430849 0.78727192 4289046350
31.514114 18.431805 0.78566337 4288849998
31.51441 18.431789 0.78428054 4288653133
31.514706 18.431774 0.78289777 4288785490
31.514 18.43273 0.78128922 4288391504
31.513647 18.433207 0.78048491 4288654419
31.513294 18.433685 0.77968067 4288522576
31.512589 18.434641 0.77807206 4288390219
31.512234 18.43512 0.77726781 4288586826
31.511232 18.43609 0.77704197 4288389449
31.509876 18.43754 0.77601194 4287994437
31.508202 18.437786 0.7756502 4287798348
31.50655 18.439251 0.77600288 4287339086
31.504873 18.439497 0.77564114 4286748754
31.523298 18.424576 0.79349846 4287668049
31.521646 18.426041 0.79385114 4288390992
31.521294 18.426519 0.79304689 4288193353
31.52029 18.42749 0.79282105 4287995972
31.519585 18.428448 0.7912125 4288259145
31.517908 18.428692 0.79085076 4288127305
31.517555 18.429171 0.79004645 4288127563
31.516201 18.43062 0.78901643 4288193615
31.515198 18.431591 0.78879064 4287797570
31.514845 18.43207 0.78798634 4288388420
31.514492 18.432549 0.78718203 4288521033
31.514435 18.43301 0.78499502 4287863617
31.51473 18.432993 0.78361219 4287535423
31.514025 18.43395 0.78200364 4287536195
31.513672 18.434427 0.78119934 4287535938
31.513319 18.434906 0.78039509 4287140923
31.511963 18.436356 0.779365 4287140152
31.51161 18.436834 0.77856076 4287270966
31.510607 18.437805 0.77833492 4287073589
31.508282 18.438543 0.7785517 4286744370
31.50663 18.44001 0.77890438 4287272004
31.526001 18.42458 0.7948004 4287733592
31.523323 18.425797 0.79421288 4287996502
31.52232 18.426767 0.7939871 4287798605
31.521318 18.42774 0.79376131 4287864649
31.520966 18.428217 0.79295701 4287667265
31.520258 18.429173 0.79134846 4287535679
31.519257 18.430145 0.79112267 4287535679
31.518904 18.430624 0.79031837 4287601218
31.518196 18.43158 0.78870982 4287666758
31.516521 18.431824 0.78834808 4286877493
31.515518 18.432796 0.7881223 4286877489
31.515165 18.433273 0.78731799 4287008564
31.515108 18.433737 0.78513098 4287008310
31.514755 18.434214 0.78432667 4287272003
31.51405 18.435169 0.78271812 4287667024
31.513046 18.436142 0.78249228 4287339355
31.512693 18.436621 0.78168803 4287538030
31.512341 18.437098 0.78088373 4287341691
31.509367 18.43833 0.78167897 4286948485
31.508011 18.439781 0.78064889 4287014797
31.505686 18.440519 0.78086561 4287212439
31.528793 18.422438 0.79976207 4286355015
31.52844 18.422916 0.79895777 4286815310
31.529409 18.423626 0.79771096 4286946128
31.528704 18.424582 0.7961024 4287142482
31.528351 18.42506 0.79529816 4286879053
31.526674 18.425304 0.79493636 4286680904
31.525318 18.426756 0.79390627 4286746435
31.523668 18.428221 0.79425901 4286811710
31.521992 18.428467 0.79389727 4286614582
31.521639 18.428944 0.79309297 4286614577
31.520931 18.429899 0.79148442 4286680370
31.51993 18.430872 0.79125857 4286877749
31.520226 18.430855 0.78987581 4286745909
31.518871 18.432306 0.78884578 4287074621
31.517868 18.433277 0.78862 4287732802
31.516191 18.433523 0.78825825 4288061763
31.51454 18.434988 0.78861094 4288258631
31.514484 18.43545 0.78642386 4287468861
31.51478 18.435434 0.78504109 4286811452
31.513777 18.436405 0.78481531 4287864403
31.513071 18.437363 0.78320676 4288326250
31.53023 18.421745 0.80369365 4286549837
31.5312 18.422457 0.80244684 4286747217
31.530848 18.422935 0.80164254 4286615632
31.53079 18.423397 0.79945546 4286483784
31.530436 18.423874 0.79865122 4286220605
31.531702 18.42457 0.79602164 4286089017
31.531349 18.425047 0.79521734 4286022710
31.530996 18.425526 0.79441309 4285891128
31.530291 18.426481 0.79280448 4285693754
31.527315 18.427713 0.79359972 4286219588
31.52564 18.427959 0.79323798 4286548298
31.523989 18.429424 0.79359066 4286679372
31.522985 18.430397 0.79336488 4286613580
31.520956 18.43112 0.79219884 4286547024
31.519955 18.432093 0.79197305 4287927913
31.52025 18.432076 0.79059029 4288848512
31.518894 18.433525 0.7895602 4288124286
31.517893 18.434498 0.78933442 4287663230
31.515568 18.435236 0.78955114 4287596932
31.514565 18.436209 0.78932536 4286807160
31.530016 18.42252 0.80797791 4287011939
31.530312 18.422504 0.80659515 4286813528
31.531578 18.423199 0.80396551 4286089286
31.531874 18.423183 0.80258274 4285628736
31.532169 18.423166 0.80120003 4285299772
31.533436 18.423862 0.79857045 4285167924
31.533731 18.423845 0.79718763 4285036331
31.533674 18.424309 0.79500061 4284970536
31.535294 18.424524 0.79317528 4285101608
31.535236 18.424988 0.79098827 4285430577
31.534235 18.425959 0.79076242 4285562168
31.53191 18.426699 0.79097915 4286416967
31.530907 18.42767 0.79075336 4286285126
31.527578 18.42938 0.7907443 4286745165
31.525927 18.430845 0.79109699 4286613580
31.524252 18.431091 0.7907353 4286349645
31.530746 18.422785 0.81030089 4285694534
31.532011 18.423479 0.80767131 4285759557
31.533606 18.422476 0.80513155 4285430593
31.535521 18.422676 0.80192351 4284903737
31.53714 18.422894 0.80009818 4285035831
31.539055 18.423094 0.79689014 4284707632
31.54162 18.422802 0.79310352 4284838974
31.542566 18.422293 0.79114228 4285036109
31.541859 18.423248 0.78953367 4285167445
31.543478 18.423464 0.7877084 4285364831
31.52964 18.418409 0.8318097 4282998070
31.527988 18.419874 0.83216238 4283327035
31.527931 18.420336 0.82997531 4283194421
31.527578 18.420815 0.82917106 4283654456
31.527874 18.420797 0.82778829 4284377667
31.52849 18.421988 0.82573718 4285166927
31.528137 18.422464 0.82493287 4286022236
31.529083 18.421955 0.82297164 4284771912
31.534815 18.415066 0.83874166 4283327037
31.533812 18.416039 0.83851588 4282603312
31.533754 18.4165 0.8363288 4282735410
31.533401 18.416977 0.8355245 4282669362
31.5324 18.41795 0.83529872 4282669362
31.530724 18.418196 0.83493698 4283458878
31.530018 18.419151 0.83332843 4283327292
31.530987 18.419861 0.83208162 4282998070
31.528662 18.420601 0.83229834 4282866484
31.527956 18.421556 0.83068979 4283391800
31.528252 18.421541 0.82930702 4283917628
31.527899 18.422018 0.82850271 4284048702
31.528515 18.423206 0.8264516 4284048446
31.528162 18.423685 0.82564735 4284245825
31.528458 18.42367 0.82426453 4283719224
31.529264 18.414297 0.85564148 4285427546
31.530209 18.413788 0.85368025 4285296214
31.530506 18.413771 0.85229748 4284706132
31.531122 18.414961 0.85024631 4284050514
31.531418 18.414944 0.84886354 4283853134
31.531713 18.414928 0.84748083 4283524425
31.531008 18.415884 0.84587222 4282932542
31.533276 18.415607 0.84346843 4282208817
31.532923 18.416084 0.84266412 4282077229
31.532217 18.417042 0.84105557 4282406192
31.532513 18.417025 0.8396728 4282669363
31.533484 18.417736 0.83842599 4282800948
31.532776 18.418692 0.83681744 4282866484
31.532423 18.41917 0.83601314 4282866484
31.53207 18.419647 0.83520889 4283128887
31.531364 18.420603 0.83360034 4283391546
31.53166 18.420588 0.83221757 4283259960
31.530659 18.42156 0.83199173 4283193654
31.529951 18.422516 0.83038318 4282997047
31.529598 18.422993 0.82957888 4282997820
31.529245 18.423471 0.82877463 4283260220
31.529188 18.423933 0.82658756 4283654207
31.529486 18.423918 0.82520479 4283521596
31.530455 18.424627 0.82395798 4283520571
31.529491 18.412449 0.86438966 4287990410
31.529139 18.412926 0.86358541 4287398528
31.528786 18.413404 0.86278111 4286543987
31.52808 18.41436 0.86117256 4285754725
31.527727 18.414839 0.86036825 4285360733
31.528671 18.414328 0.85840702 4285032277
31.529289 18.415518 0.85635591 4284966995
31.530233 18.415007 0.85439467 4285098835
31.530529 18.414991 0.85301191 4284113995
31.531147 18.41618 0.85096079 4283326791
31.531443 18.416164 0.84957802 4282734653
31.531738 18.416149 0.84819525 4282011186
31.532356 18.417337 0.84614414 4282077233
31.532652 18.417322 0.84476137 4282406196
31.532948 18.417305 0.8433786 4282471987
31.532242 18.418261 0.84177005 4282537778
31.531889 18.418739 0.84096575 4282669363
31.532185 18.418724 0.83958298 4282471983
31.532801 18.419912 0.83753186 4282603312
31.532448 18.420389 0.83672762 4283063863
31.532095 18.420868 0.83592331 4282799922
31.531389 18.421824 0.83431476 4283325753
31.531685 18.421808 0.832932 4282865202
31.531332 18.422285 0.83212769 4282930482
31.530626 18.423243 0.83051914 4282602289
31.530272 18.423719 0.82971483 4282405683
31.532579 18.410292 0.86796856 4288650894
31.532227 18.410769 0.86716431 4287664250
31.531874 18.411247 0.86636001 4286480740
31.530518 18.412697 0.86532992 4285691988
31.530165 18.413176 0.86452562 4285297486
31.529812 18.413652 0.86372137 4284837703
31.529459 18.414131 0.86291707 4284641608
31.528753 18.415087 0.86130852 4284050755
31.529049 18.415071 0.85992575 4283788870
31.53002 18.415781 0.85867894 4282934590
31.529963 18.416243 0.85649186 4282409020
31.530258 18.416227 0.8551091 4281883449
31.531878 18.416445 0.85328376 4281356593
31.53182 18.416906 0.85109675 4281158701
31.53344 18.417124 0.84927142 4281750068
31.533087 18.417601 0.84846711 4281881397
31.53303 18.418064 0.8462801 4281880627
31.533325 18.418047 0.84489733 4282011956
31.533621 18.418032 0.84351456 4282208565
31.532267 18.419481 0.84248447 4282339894
31.531912 18.41996 0.84168017 4282405429
31.532209 18.419943 0.84029746 4282799929
31.532825 18.421133 0.83824629 4283128123
31.533121 18.421116 0.83686352 4283259451
31.532768 18.421595 0.83605927 4283324986
31.532063 18.42255 0.83445072 4283719486
31.532358 18.422535 0.83306795 4283521851
31.534986 18.410311 0.87065333 4286940030
31.534634 18.410788 0.86984903 4285755752
31.532604 18.411512 0.86868298 4285756002
31.532251 18.411989 0.86787874 4285493081
31.531898 18.412468 0.86707443 4285033294
31.531193 18.413424 0.86546588 4285034058
31.53084 18.4139 0.86466157 4284902728
31.530485 18.414379 0.86385733 4284903496
31.530783 18.414364 0.86247456 4284707401
31.530075 18.415319 0.86086595 4283590204
31.529722 18.415798 0.86006171 4282670389
31.530693 18.416508 0.8588149 4281816109
31.530636 18.416969 0.85662782 4281356332
31.532255 18.417187 0.85480249 4280962347
31.531902 18.417665 0.85399824 4281356593
31.531845 18.418127 0.85181117 4281553459
31.533464 18.418344 0.84998584 4281421103
31.53376 18.418327 0.84860307 4281091881
31.533054 18.419283 0.84699452 4281156904
31.533998 18.418774 0.84503329 4281748784
31.533646 18.419252 0.84422898 4282800702
31.53294 18.420208 0.84262043 4283853133
31.531288 18.421673 0.84297311 4284576598
31.532234 18.421164 0.84101188 4285563235
31.533745 18.410835 0.87399733 4285693782
31.534691 18.410326 0.8720361 4284840003
31.534338 18.410805 0.87123179 4284642882
31.533985 18.411282 0.87042749 4284182589
31.533278 18.412237 0.86881894 4283854142
31.532925 18.412716 0.86801469 4283920709
31.531923 18.413687 0.86778885 4283592519
31.531216 18.414644 0.8661803 4283395659
31.531513 18.414627 0.86479753 4283066953
31.532482 18.415339 0.86355072 4282211903
31.532129 18.415815 0.86274642 4281093421
31.532072 18.416279 0.8605594 4280896041
31.531719 18.416756 0.8597551 4281685043
31.532015 18.41674 0.85837233 4282144824
31.532633 18.417929 0.85632122 4282342204
31.532928 18.417913 0.85493845 4281815604
31.533224 18.417898 0.85355568 4282010679
31.53384 18.419086 0.85150456 4282666305
31.533487 18.419563 0.85070032 4282665792
31.533785 18.419548 0.84931749 4284112724
31.533077 18.420504 0.84770894 4285954416
31.533375 18.420488 0.84632617 4287072384
31.531723 18.421953 0.84667891 4287795337
31.53137 18.422432 0.84587461 4288387217
31.530588 18.41116 0.88054943 4285625181
31.531559 18.411871 0.87930262 4285165397
31.532503 18.411362 0.87734139 4285363286
31.53377 18.412056 0.87471181 4284706887
31.534065 18.412041 0.87332904 4284445245
31.534363 18.412024 0.87194622 4283919159
31.534008 18.412502 0.87114191 4283919417
31.534626 18.413691 0.86909086 4283525177
31.534273 18.414169 0.86828655 4283262779
31.532597 18.414413 0.86792481 4282079280
31.531891 18.415369 0.86631626 4281290283
31.530888 18.416342 0.86609048 4281422128
31.532507 18.416559 0.86426514 4281488180
31.532803 18.416542 0.86288238 4281685558
31.532745 18.417006 0.86069536 4281882936
31.533716 18.417715 0.85944849 4281685043
31.533363 18.418194 0.85864419 4281881652
31.533306 18.418655 0.85645717 4282868548
31.533602 18.41864 0.85507441 4283460429
31.534573 18.41935 0.8538276 4284839778
31.533865 18.420307 0.85221905 4286153334
31.534161 18.42029 0.85083628 4287337095
31.534458 18.420275 0.84945345 4288784027
31.531376 18.410963 0.88505948 4284706878
31.532995 18.411179 0.8832342 4284641597
31.532642 18.411657 0.8824299 4284640833
31.531937 18.412613 0.88082135 4284508740
31.532881 18.412104 0.87886006 4285298257
31.533178 18.412088 0.87747729 4286153312
31.534443 18.412783 0.87484771 4284708694
31.536062 18.413 0.87302238 4283593042
31.535709 18.413477 0.87221813 4282147397
31.536005 18.413462 0.87083536 4280899645
31.534651 18.414911 0.86980528 4280307766
31.534946 18.414896 0.86842251 4279847986
31.535242 18.414879 0.86703974 4281162048
31.533886 18.416328 0.86600965 4281818436
31.533533 18.416807 0.86520541 4282211397
31.533831 18.416792 0.86382264 4282670150
31.535448 18.417007 0.86199731 4283195214
31.535393 18.417471 0.85981023 4283786327
31.536362 18.41818 0.85856342 4285232749
31.534037 18.418921 0.85878015 4286350207
31.531105 18.412199 0.88715672 4283522348
31.532049 18.41169 0.88519543 4284312120
31.53302 18.412399 0.88394862 4283852081
31.532667 18.412878 0.88314432 4283785524
31.53261 18.41334 0.88095731 4284508740
31.533554 18.41283 0.87899601 4284574534
31.534525 18.41354 0.8777492 4284311108
31.535116 18.413509 0.87498367 4283590213
31.536736 18.413725 0.87315834 4282079803
31.537033 18.41371 0.87177557 4280831537
31.538651 18.413927 0.86995029 4280307508
31.537945 18.414883 0.86834174 4281097282
31.536943 18.415854 0.8681159 4281492811
31.537239 18.415838 0.86673319 4282214736
31.535883 18.417288 0.86570311 4282805331
31.536179 18.417273 0.86432034 4283856222
31.536476 18.417257 0.86293751 4284775526
31.537741 18.417952 0.86030793 4285169004
31.53113 18.41342 0.88787115 4284310841
31.532074 18.412909 0.88590991 4284246076
31.53237 18.412893 0.88452709 4283918139
31.53334 18.413605 0.88328028 4283722308
31.532635 18.41456 0.88167173 4283197512
31.534903 18.414282 0.87926793 4281752125
31.535198 18.414267 0.87788516 4280766775
31.536465 18.414961 0.87525558 4280832567
31.537409 18.414452 0.87329429 4281358653
31.53838 18.415163 0.87204748 4282277449
31.539974 18.41416 0.86950773 4282998865
31.54059 18.415348 0.86745661 4283522901
31.540237 18.415825 0.86665237 4284638819
31.532099 18.414129 0.88662434 4283851318
31.533718 18.414347 0.884799 4283062830
31.534014 18.41433 0.88341624 4282274862
31.533957 18.414793 0.88122922 4281684273
31.534927 18.415503 0.87998241 4281883711
31.535872 18.414993 0.87802112 4282148428
31.537786 18.415194 0.87481308 4282016841
31.539406 18.415411 0.87298775 4281950790
