# .PCD v0.7 - Point Cloud Data file format
VERSION 0.7
FIELDS x y z rgba
SIZE 4 4 4 4
TYPE F F F U
COUNT 1 1 1 1
WIDTH 141
HEIGHT 1
VIEWPOINT 0 0 0 1 0 0 0
POINTS 141
DATA ascii
31.596382 17.526625 1.1839204 4282929189
31.598658 17.523445 1.1822748 4283982392
31.597952 17.524401 1.1806662 4283127083
31.598248 17.524385 1.1792834 4282732325
31.59589 17.526806 1.1780275 4282271774
31.593557 17.530449 1.1774862 4282534946
31.594608 17.531918 1.1791408 4283455559
31.592924 17.535065 1.178021 4283258175
31.592218 17.53602 1.1764123 4283455294
31.584921 17.546961 1.1761708 4283060531
31.589178 17.540619 1.1742623 4283126321
31.59078 17.536713 1.1724807 4282665767
31.600241 17.523516 1.1667026 4282534950
31.599533 17.524471 1.165094 4282337571
31.608591 17.509314 1.1570827 4282075422
31.612848 17.50297 1.1551741 4282272804
31.596605 17.532875 1.1788342 4286153072
31.594271 17.536518 1.1782928 4284837207
31.593893 17.535776 1.176774 4284771154
31.592209 17.538923 1.1756542 4284179012
31.590502 17.540852 1.1738198 4288192382
31.589146 17.542301 1.1727897 4288192379
31.588465 17.544477 1.1718955 4285560916
31.592697 17.536913 1.1692727 4284048189
31.598934 17.527407 1.1671014 4283916603
31.599878 17.526896 1.16514 4284048189
31.598522 17.528347 1.1641101 4283916091
31.59882 17.52833 1.1627272 4283718457
31.599091 17.527094 1.16063 4283785274
31.601368 17.523914 1.1589844 4283654454
31.603643 17.520735 1.1573387 4283259699
31.601286 17.523157 1.1560829 4283193652
31.601582 17.52314 1.1547002 4282864689
31.596752 17.528908 1.1478143 4281548056
31.591436 17.536686 1.1473099 4280956174
31.593714 17.533506 1.1456643 4280890634
31.594658 17.532995 1.1437031 4281351183
31.593632 17.532747 1.1427629 4282008598
31.59787 17.533571 1.1762047 4284837223
31.599144 17.531363 1.1743332 4283258191
31.593828 17.539141 1.1738288 4286679425
31.592474 17.54059 1.1727988 4290956225
31.591766 17.541546 1.1711903 4288324500
31.594044 17.538366 1.1695446 4282929725
31.599277 17.529831 1.1671475 4283127098
31.600552 17.527622 1.1652761 4282929455
31.599871 17.529799 1.1643819 4282797609
31.599493 17.529057 1.1628631 4283126569
31.598787 17.530012 1.1612546 4282732583
31.600061 17.527805 1.1593832 4282733354
31.600357 17.527788 1.1580005 4282799146
31.598673 17.530937 1.1568805 4282930731
31.599298 17.529222 1.1555877 4282667559
31.600573 17.527016 1.1537162 4282667559
31.598888 17.530163 1.1525962 4282602024
31.60008 17.527197 1.1478233 4283523127
31.596416 17.533508 1.1469663 4283260213
31.59506 17.534958 1.1459363 4282471211
31.598965 17.529093 1.1432235 4281550109
31.597609 17.530542 1.1421933 4281023765
31.594921 17.534662 1.1408477 4280892179
31.590609 17.541468 1.1405691 4280957972
31.588547 17.543873 1.1379304 4281878548
31.586189 17.546295 1.1366745 4282075929
31.588137 17.544813 1.1349392 4282404383
31.587784 17.545292 1.1341349 4282272543
31.586403 17.545521 1.1323904 4282403619
31.5867 17.545506 1.1310076 4282535208
31.601824 17.530146 1.1749208 4284705637
31.603905 17.527132 1.1659995 4282008353
31.600544 17.530525 1.1645179 4282731816
31.60084 17.53051 1.1631351 4282402846
31.601112 17.529274 1.1610379 4282469411
31.60043 17.53145 1.1601439 4282338596
31.600052 17.530708 1.158625 4282141216
31.599371 17.532883 1.1577309 4281878043
31.598665 17.53384 1.1561224 4281614871
31.599939 17.531631 1.154251 4281483285
31.599232 17.532587 1.1526424 4281351957
31.595898 17.537201 1.1518751 4281417751
31.596521 17.535486 1.1505822 4281878302
31.597795 17.533279 1.1487107 4281615130
31.602701 17.526442 1.1462238 4281615388
31.601347 17.527891 1.1451938 4281418523
31.598011 17.532505 1.1444266 4281221144
31.598955 17.531996 1.1424652 4281221144
31.596598 17.534416 1.1412094 4281286937
31.593935 17.539757 1.1405782 4281286937
31.589598 17.545341 1.1395851 4281352467
31.589893 17.545326 1.1382023 4281352204
31.58954 17.545805 1.137398 4281417999
31.587183 17.548225 1.1361421 4282141211
31.588457 17.546019 1.1342708 4282798887
31.589403 17.545507 1.1323094 4283653686
31.590027 17.543795 1.1310166 4285693272
31.5903 17.542559 1.1289194 4287403379
31.593792 17.537632 1.1232153 4285100366
31.591459 17.541275 1.1226739 4284902728
31.590754 17.542231 1.1210653 4284507710
31.593029 17.539051 1.1194197 4283783470
31.593302 17.537815 1.1173224 4283191074
31.592949 17.538292 1.1165181 4283322401
31.605801 17.527941 1.1743513 4284640362
31.603872 17.528814 1.1645269 4281678629
31.603165 17.52977 1.1629183 4282336297
31.600908 17.532343 1.1530041 4281615129
31.600203 17.533298 1.1513956 4281746970
31.601501 17.53231 1.1502386 4281286419
31.601772 17.531075 1.1481414 4281483798
31.603046 17.528866 1.14627 4281418263
31.6063 17.523495 1.1441357 4281484314
31.602964 17.528109 1.1433685 4281615902
31.600632 17.53175 1.142827 4281813026
31.599596 17.534405 1.1411287 4281879078
31.59659 17.537319 1.1404512 4281879593
31.59157 17.54508 1.1385641 4282338596
31.589886 17.548229 1.1374441 4282601771
31.58853 17.549679 1.1364141 4282338345
31.589804 17.54747 1.1345427 4282732596
31.590076 17.546234 1.1324455 4282863930
31.589394 17.54841 1.1315514 4285560935
31.589016 17.547668 1.1300325 4290889403
31.59029 17.545462 1.1281612 4292994013
31.592587 17.541674 1.1149558 4289900204
31.593212 17.539959 1.1136628 4288388242
31.594156 17.53945 1.1117015 4287532675
31.59082 17.544064 1.1109344 4286742901
31.593098 17.540884 1.1092887 4285887589
31.595999 17.53599 1.1063502 4285097813
31.610006 17.522526 1.1456635 4281484056
31.61063 17.520813 1.1443706 4281484314
31.607944 17.524933 1.1430248 4281681695
31.605612 17.528574 1.1424834 4281878819
31.603252 17.530994 1.1412276 4281879078
31.589386 17.551313 1.1307932 4285099619
31.5867 17.555433 1.1294475 4292007118
31.593933 17.543127 1.1152276 4293716198
31.59358 17.543604 1.1144234 4293454303
31.594501 17.541874 1.1117476 4293651424
31.594149 17.542353 1.1109433 4293322201
31.589811 17.547937 1.1099503 4292466889
