# .PCD v0.7 - Point Cloud Data file format
VERSION 0.7
FIELDS x y z rgba
SIZE 4 4 4 4
TYPE F F F U
COUNT 1 1 1 1
WIDTH 147
HEIGHT 1
VIEWPOINT 0 0 0 1 0 0 0
POINTS 147
DATA ascii
31.506073 18.599751 0.90640563 4285362246
31.505718 18.600229 0.90560132 4285033535
31.506128 18.599289 0.90859264 4285624658
31.505775 18.599768 0.9077884 4285361736
31.505423 18.600245 0.90698409 4284835902
31.50507 18.600723 0.90617979 4284507191
31.504717 18.6012 0.90537554 4284244277
31.507566 18.598597 0.91252422 4285626438
31.507214 18.599075 0.91171992 4285429059
31.508183 18.599787 0.91047311 4285166144
31.507477 18.600742 0.90886456 4285035071
31.506153 18.60051 0.90930706 4284574777
31.505447 18.601465 0.90769851 4284114484
31.506416 18.602177 0.9064517 4283851313
31.504742 18.602421 0.90608996 4283456556
31.507977 18.597658 0.91551554 4285954383
31.507624 18.598135 0.91471124 4285822283
31.50662 18.599108 0.91448545 4285362499
31.506916 18.599091 0.91310269 4285100094
31.507887 18.599802 0.91185588 4284902715
31.50621 18.600048 0.91149414 4284705593
31.507181 18.600758 0.91024733 4284574520
31.506826 18.601236 0.90944302 4284443191
31.505152 18.60148 0.90908128 4284048691
31.504799 18.601959 0.90827698 4283061797
31.504091 18.602915 0.90666842 4281943317
31.503738 18.603394 0.90586412 4280890630
31.507736 18.597212 0.91908538 4285559358
31.507383 18.597689 0.91828108 4285625409
31.50703 18.598167 0.91747683 4285757509
31.508001 18.598877 0.91623002 4285296959
31.507647 18.599356 0.91542572 4285559875
31.505972 18.599602 0.91506398 4285099833
31.507591 18.599817 0.91323864 4284705583
31.507236 18.600296 0.91243434 4284574257
31.506884 18.600773 0.91163009 4284443188
31.507854 18.601484 0.91038328 4284114484
31.506178 18.60173 0.91002148 4283720245
31.505825 18.602207 0.90921724 4283062830
31.505472 18.602686 0.90841293 4281681693
31.504766 18.603642 0.90680438 4280826383
31.508821 18.596998 0.92221266 4286348099
31.508467 18.597475 0.92140836 4285361720
31.507761 18.598431 0.9197998 4285756737
31.507408 18.598909 0.9189955 4285559616
31.507055 18.599388 0.91819125 4285428544
31.507351 18.599371 0.91680849 4284967994
31.506998 18.59985 0.91600418 4284901945
31.506645 18.600327 0.91519994 4284507696
31.507614 18.601038 0.91395313 4284376618
31.507261 18.601517 0.91314882 4283784741
31.506908 18.601994 0.91234452 4283982637
31.507204 18.601978 0.91096175 4284246070
31.506851 18.602455 0.91015744 4283457073
31.50585 18.603428 0.90993166 4281878556
31.506145 18.603413 0.90854889 4280826384
31.50544 18.604368 0.90694034 4281418520
31.508524 18.597013 0.92359543 4287598406
31.509495 18.597723 0.92234862 4286809659
31.507818 18.597969 0.92198688 4285954610
31.507465 18.598448 0.92118257 4285823027
31.507113 18.598925 0.92037827 4285428786
31.506407 18.59988 0.91876972 4284705579
31.507376 18.600592 0.91752291 4284376616
31.507023 18.60107 0.9167186 4284113446
31.505346 18.601315 0.91635686 4284047909
31.506966 18.601532 0.91453159 4283719713
31.506613 18.602009 0.91372728 4283522852
31.50626 18.602488 0.91292304 4283523626
31.507229 18.603199 0.91167623 4282932008
31.507524 18.603182 0.9102934 4281879584
31.506523 18.604155 0.91006762 4280892436
31.506819 18.604137 0.90868485 4281418270
31.50758 18.597523 0.92555672 4287663943
31.508549 18.598234 0.92430985 4287861578
31.508844 18.598217 0.92292708 4286349108
31.508492 18.598696 0.92212278 4285625645
31.50749 18.599667 0.92189699 4285296683
31.507137 18.600145 0.92109269 4284902442
31.506783 18.600624 0.92028844 4284442407
31.506727 18.601086 0.91810137 4284179237
31.506372 18.601562 0.91729712 4283981860
31.50602 18.602041 0.91649282 4283850530
31.50699 18.602753 0.91524601 4283719713
31.507286 18.602736 0.91386324 4283391266
31.506933 18.603214 0.91305894 4282668317
31.507902 18.603924 0.91181213 4281747734
31.507549 18.604403 0.91100788 4280958482
31.50563 18.599005 0.92729211 4288650838
31.50725 18.59922 0.92546684 4287466821
31.507547 18.599205 0.92408407 4285822766
31.507193 18.599684 0.92327982 4285296681
31.508163 18.600393 0.92203295 4284770853
31.507811 18.600872 0.92122865 4284442405
31.507458 18.601349 0.9204244 4284245541
31.507105 18.601828 0.9196201 4284047909
31.507048 18.602289 0.91743308 4283850533
31.506695 18.602768 0.91662878 4283522596
31.50634 18.603247 0.91582447 4283325732
31.507311 18.603956 0.91457766 4282799649
31.507607 18.603941 0.91319489 4281879320
31.508577 18.60465 0.91194808 4280958736
31.50301 18.59976 0.92889166 4288058701
31.504629 18.599976 0.92706633 4286216754
31.505598 18.600687 0.92581952 4285296422
31.507217 18.600903 0.92399424 4285033509
31.506865 18.601381 0.92318994 4284573474
31.50716 18.601366 0.92180717 4284310819
31.508131 18.602076 0.92056036 4284179748
31.507778 18.602554 0.91975605 4283982116
31.507071 18.60351 0.9181475 4283784740
31.506718 18.603989 0.9173432 4283325217
31.507015 18.603971 0.91596043 4282996767
31.50666 18.60445 0.91515619 4282075926
31.507631 18.605162 0.91390932 4281550355
31.500093 18.600531 0.93187398 4286282555
31.502361 18.600252 0.92947012 4285230637
31.502977 18.601442 0.92741907 4284573476
31.504597 18.601658 0.92559373 4284376613
31.505566 18.602369 0.92434692 4284048162
31.505863 18.602354 0.92296416 4283916836
31.507481 18.60257 0.92113882 4283851303
31.508451 18.603281 0.91989201 4283654183
31.508394 18.603743 0.91770494 4283391013
31.507393 18.604715 0.91747916 4282996003
31.507689 18.604698 0.91609639 4282206492
31.507336 18.605177 0.91529208 4281680409
31.496149 18.601053 0.93391603 4285229867
31.498442 18.601995 0.9322266 4284441121
31.50071 18.601719 0.92982286 4284178718
31.501976 18.602413 0.92719322 4283981855
31.503593 18.602631 0.92536795 4283850783
31.505886 18.603573 0.92367858 4283785250
31.507505 18.60379 0.9218533 4283851303
31.509125 18.604008 0.92002797 4283654183
31.509068 18.604469 0.9178409 4282996255
31.508715 18.604948 0.91703659 4282403866
31.509686 18.605658 0.91578978 4281416976
31.495819 18.602751 0.93382615 4284046623
31.497438 18.602968 0.93200082 4283915549
31.499058 18.603184 0.93017554 4283850272
31.501999 18.603634 0.92790765 4283784738
31.503265 18.604328 0.92527813 4283653412
31.506207 18.604778 0.92301023 4283785258
31.508476 18.604502 0.92060643 4283456553
31.509741 18.605196 0.91797686 4282469660
31.499378 18.604389 0.9295072 4283718945
