# .PCD v0.7 - Point Cloud Data file format
VERSION 0.7
FIELDS x y z rgba
SIZE 4 4 4 4
TYPE F F F U
COUNT 1 1 1 1
WIDTH 167
HEIGHT 1
VIEWPOINT 0 0 0 1 0 0 0
POINTS 167
DATA ascii
31.491611 18.6367 0.61144155 4280823834
31.491554 18.637161 0.60925454 4280100110
31.490257 18.638149 0.61041147 4280231696
31.487932 18.638887 0.61062819 4280692247
31.484509 18.632349 0.63311195 4283190597
31.484156 18.632826 0.63230765 4283256128
31.484772 18.634014 0.63025653 4283058487
31.485363 18.633984 0.627491 4282729520
31.486629 18.634678 0.62486142 4282532394
31.487896 18.635372 0.62223178 4282204459
31.489162 18.636068 0.6196022 4281679143
31.489458 18.636051 0.61821949 4281218592
31.490074 18.637239 0.61616838 4280692248
31.490017 18.637703 0.61398131 4280100111
31.489664 18.63818 0.613177 4279968524
31.487339 18.63892 0.61339378 4280692247
31.485071 18.639196 0.61579752 4281218591
31.481127 18.639719 0.61783957 4281021211
31.47938 18.632935 0.64068508 4282467883
31.479322 18.633396 0.63849801 4282467371
31.479939 18.634584 0.63644689 4282401322
31.481853 18.634787 0.63323885 4282072358
31.48312 18.635481 0.63060921 4281809187
31.484386 18.636175 0.62797964 4281678371
31.484329 18.636637 0.62579262 4281087005
31.484945 18.637827 0.62374151 4280429589
31.485241 18.63781 0.62235868 4279903245
31.486507 18.638504 0.6197291 4279837452
31.485802 18.639462 0.61812061 4280232209
31.485449 18.639938 0.61731631 4280758552
31.481209 18.640476 0.62074113 4281087259
31.480759 18.632704 0.64242959 4282402090
31.474899 18.633026 0.64767969 4282665262
31.471628 18.634275 0.6498577 4282467883
31.473545 18.634476 0.6466496 4282204199
31.473488 18.634937 0.64446259 4282138150
31.497299 18.629198 0.63805693 4284375880
31.495327 18.629459 0.63907802 4283849536
31.493002 18.630198 0.63929474 4283586364
31.491999 18.63117 0.63906896 4283388985
31.490028 18.63143 0.64008999 4282796848
31.487406 18.632185 0.64168954 4282665262
31.483166 18.632723 0.6451143 4282862898
31.479221 18.633245 0.64715636 4282731313
31.473658 18.633551 0.65102375 4282204970
31.469713 18.634073 0.6530658 4282073640
31.465178 18.634628 0.65787339 4282008359
31.495146 18.62855 0.64483494 4284245580
31.494438 18.629505 0.64322633 4283521086
31.493437 18.630478 0.64300054 4283191606
31.493732 18.630463 0.64161777 4282862641
31.491407 18.631201 0.6418345 4282731055
31.489435 18.631462 0.64285553 4282665262
31.488432 18.632435 0.64262974 4282467883
31.484192 18.632973 0.64605457 4282533676
31.47863 18.633278 0.64992189 4282533933
31.47212 18.634092 0.65575057 4282204969
31.465908 18.634892 0.66019636 4281810212
31.462317 18.634937 0.66304272 4281481503
31.459696 18.635691 0.66464227 4281547808
31.493961 18.628614 0.65036595 4283718457
31.493254 18.62957 0.6487574 4283652663
31.493551 18.629553 0.64737463 4283586869
31.494167 18.630743 0.64532351 4283191854
31.493814 18.63122 0.64451927 4282796326
31.493462 18.631699 0.64371496 4282730533
31.491785 18.631943 0.64335322 4282664740
31.489164 18.632698 0.64495271 4282599205
31.485868 18.632727 0.64641631 4282467877
31.480978 18.633759 0.65041959 4282533927
31.473797 18.633848 0.65611231 4282402599
31.46567 18.634445 0.66376621 4282008099
31.457188 18.635523 0.67061585 4281745185
31.455215 18.635784 0.67163688 4281679649
31.491453 18.628445 0.65633959 4283455289
31.4911 18.628922 0.65553534 4283060529
31.491043 18.629385 0.65334827 4283257906
31.492012 18.630095 0.6521014 4283323698
31.493279 18.630789 0.64947182 4283060525
31.493221 18.631252 0.64728481 4282797096
31.493164 18.631714 0.64509773 4282401568
31.494135 18.632425 0.64385092 4282401568
31.492458 18.632669 0.64348918 4282335775
31.490133 18.63341 0.6437059 4282336033
31.484274 18.63373 0.64895606 4282336291
31.475496 18.634823 0.65718848 4282270755
31.466696 18.634695 0.66470647 4282139427
31.460188 18.635509 0.67053503 4282073892
31.486973 18.628536 0.66333425 4282994227
31.488239 18.62923 0.66070467 4282862639
31.488182 18.629692 0.6585176 4282928431
31.489449 18.630388 0.65588802 4282928943
31.490715 18.631083 0.65325844 4283060529
31.49198 18.631777 0.65062881 4282797357
31.493246 18.632473 0.64799923 4282467878
31.494513 18.633167 0.64536965 4282467363
31.49416 18.633644 0.64456534 4282270241
31.493805 18.634123 0.64376104 4282073119
31.490511 18.634151 0.64522463 4282204962
31.48789 18.634907 0.64682418 4282271013
31.470665 18.635393 0.66337883 4281942563
31.482847 18.628151 0.67113316 4283388734
31.484114 18.628845 0.66850358 4283060022
31.485378 18.629539 0.665874 4282796848
31.485321 18.630001 0.66368693 4282731053
31.487911 18.63093 0.66061479 4282533673
31.489826 18.63113 0.65740675 4282336806
31.491093 18.631824 0.65477717 4282731564
31.493977 18.632736 0.6503222 4282863150
31.49457 18.632704 0.64755666 4282665257
31.495186 18.633894 0.64550561 4282467363
31.495481 18.633877 0.64412278 4282270241
31.494776 18.634834 0.64251423 4282204705
31.490536 18.635372 0.64593905 4282402341
31.486944 18.635416 0.64878541 4282336806
31.479338 18.628952 0.67688096 4283454262
31.478985 18.629431 0.67607671 4282927917
31.480249 18.630125 0.67344707 4282533158
31.482164 18.630325 0.67023903 4282401828
31.484081 18.630527 0.66703093 4282270498
31.486317 18.631933 0.66315454 4282139169
31.48888 18.631639 0.65936798 4282139427
31.491116 18.633045 0.65549159 4282599467
31.493328 18.63323 0.65090072 4282665262
31.496565 18.633663 0.64725012 4282533675
31.497831 18.634359 0.64462054 4282467881
31.499098 18.635054 0.6419909 4282467882
31.498392 18.636009 0.64038235 4282665519
31.471973 18.628132 0.68833053 4282730285
31.472589 18.629322 0.68627942 4282861870
31.474504 18.629522 0.68307132 4282993711
31.474447 18.629984 0.6808843 4282993710
31.476067 18.630201 0.67905897 4282730537
31.478302 18.631607 0.67518258 4282336035
31.480867 18.631313 0.67139602 4281875740
31.484722 18.632936 0.6656943 4281941790
31.488256 18.633354 0.66066092 4282271013
31.491789 18.633772 0.65562755 4282599467
31.494675 18.634684 0.65117258 4282599469
31.461987 18.628069 0.70137954 4283453233
31.464575 18.628996 0.69830745 4282861352
31.466492 18.629196 0.69509935 4282533156
31.466434 18.629658 0.69291234 4282270241
31.467403 18.630369 0.69166553 4282073119
31.468966 18.631048 0.68765312 4282270754
31.470881 18.631248 0.68444502 4282534183
31.473469 18.632177 0.68137294 4282336806
31.477003 18.632595 0.67633951 4281678878
31.480537 18.633013 0.67130613 4282138918
31.450087 18.627802 0.7176367 4284241724
31.452002 18.628004 0.7144286 4284176187
31.454237 18.629408 0.71055222 4283387440
31.4568 18.629116 0.70676565 4282663973
31.459391 18.630043 0.70369351 4282533156
31.457714 18.630289 0.70333177 4282401827
31.458981 18.630983 0.70070219 4282073119
31.460896 18.631184 0.69749409 4282139168
31.463779 18.632095 0.69303918 4282402597
31.466665 18.633007 0.68858433 4282402599
31.439394 18.628693 0.72907722 4283584819
31.442928 18.629112 0.72404385 4283782454
31.443897 18.629822 0.72279704 4283256109
31.445459 18.630501 0.71878463 4282401570
31.448698 18.630934 0.71513402 4282402084
31.448345 18.631413 0.71432972 4282468134
31.449907 18.632092 0.71031737 4282139427
31.451822 18.632292 0.70710933 4282139428
