# .PCD v0.7 - Point Cloud Data file format
VERSION 0.7
FIELDS x y z rgba
SIZE 4 4 4 4
TYPE F F F U
COUNT 1 1 1 1
WIDTH 1128
HEIGHT 1
VIEWPOINT 0 0 0 1 0 0 0
POINTS 1128
DATA ascii
31.632393 24.919065 0.70400733 4282334762
31.638424 24.922846 0.69806355 4282203946
31.637665 24.922207 0.6970554 4282204460
31.631006 24.91921 0.70000017 4282204460
31.627171 24.915977 0.70195949 4282204460
31.611309 24.907791 0.75182319 4281412639
31.61055 24.907152 0.75081509 4281018397
31.608376 24.90663 0.75079972 4281083677
31.606852 24.905346 0.74978352 4281148958
31.603907 24.904173 0.75075996 4281018655
31.601606 24.902235 0.75173557 4280625436
31.600082 24.900951 0.75071937 4280756251
31.600088 24.900957 0.74971938 4281150494
31.60535 24.904087 0.74476743 4281150494
31.609203 24.907339 0.7398082 4281282080
31.609209 24.907345 0.73880821 4281479458
31.618988 24.912983 0.72489631 4282203694
31.63402 24.92174 0.70803243 4282203948
31.613008 24.909256 0.72184044 4282269741
31.609299 24.907438 0.72280878 4282401327
31.616096 24.911861 0.71687311 4282401326
31.621363 24.914997 0.71092111 4282401325
31.626625 24.918127 0.70596915 4282467118
31.632656 24.921907 0.70002538 4282598704
31.631897 24.921268 0.69901729 4282730290
31.63969 24.926428 0.78709471 4283916081
31.629961 24.920843 0.79200691 4284309814
31.627666 24.918911 0.79198259 4285098305
31.621653 24.915148 0.79492652 4284638014
31.615648 24.911398 0.79587048 4283520051
31.614889 24.910759 0.79486239 4282994223
31.609644 24.907648 0.79681444 4282663979
31.61042 24.908302 0.79482263 4282728236
31.613503 24.910904 0.79085523 4282727729
31.611202 24.908964 0.79183084 4282529843
31.59956 24.903126 0.7507292 4280887837
31.599571 24.903137 0.74872929 4281018908
31.60099 24.903028 0.74673659 4281018908
31.611736 24.910803 0.71884221 4282203947
31.615463 24.91264 0.71487397 4282598704
31.614698 24.911995 0.71486586 4282598704
31.616245 24.913301 0.71188223 4282730290
31.619205 24.914492 0.70790589 4282730290
31.741962 24.990404 0.73404837 4284311602
31.743387 24.990301 0.73105574 4284048431
31.739679 24.988482 0.73202413 4283522088
31.642111 24.929775 0.7861281 4284639295
31.627769 24.920301 0.79499143 4285361479
31.623297 24.917839 0.79595166 4285690454
31.621767 24.916552 0.79593545 4285887586
31.617292 24.914089 0.79689562 4284900696
31.612814 24.911621 0.79885578 4283452999
31.609875 24.910454 0.7988323 4282926137
31.608345 24.909164 0.79881603 4282596654
31.605286 24.906588 0.79878354 4282136617
31.606827 24.907888 0.7967999 4281874215
31.609138 24.90984 0.79382432 4282201382
31.606073 24.907255 0.79479188 4282725927
31.600828 24.904144 0.79674387 4284167977
31.611103 24.911579 0.71684319 4282267948
31.730795 24.984909 0.74395317 4283719220
31.73452 24.986744 0.73998493 4283851056
31.732353 24.986227 0.73896956 4284048430
31.732359 24.986233 0.73796958 4283851052
31.73237 24.986244 0.73596972 4283587881
31.72559 24.981838 0.73890543 4283653677
31.721886 24.980026 0.73887384 4283785011
31.635435 24.926762 0.79207277 4284311868
31.633266 24.926243 0.79105741 4284770881
31.622002 24.919363 0.79695332 4285032514
31.616758 24.916252 0.79890537 4284703559
31.615229 24.914963 0.7988891 4284242761
31.612934 24.913031 0.79886478 4283387457
31.608454 24.910563 0.80082494 4282597690
31.606924 24.909273 0.80080873 4282399793
31.60322 24.907461 0.80077708 4282070310
31.60169 24.906174 0.80076087 4281939238
31.605537 24.909418 0.79680157 4281742629
31.607729 24.90996 0.79381704 4282201382
31.601713 24.906197 0.79676098 4283515443
31.59429 24.902555 0.79969764 4285615423
31.718206 24.979523 0.75585061 4284902487
31.722704 24.982008 0.75089055 4283981383
31.727196 24.984488 0.74693042 4283389496
31.722721 24.982025 0.74789059 4283455283
31.717476 24.978914 0.7498427 4283521073
31.715181 24.976982 0.74981833 4283455532
31.622101 24.92075 0.80096215 4283717946
31.619806 24.918816 0.80093777 4283849018
31.616861 24.917643 0.80191422 4283848510
31.610851 24.913887 0.80385816 4283650622
31.606373 24.911419 0.80581838 4283255609
31.604078 24.909487 0.805794 4282860083
31.603319 24.908848 0.80478597 4282465326
31.603325 24.908854 0.80378592 4282267948
31.603336 24.908865 0.80178601 4282201642
31.599627 24.907047 0.80275434 4282135335
31.597326 24.905109 0.80372995 4282658849
31.598103 24.905766 0.80173814 4283773988
31.60042 24.907721 0.79776263 4285808426
31.597355 24.905138 0.79873008 4287974194
31.691992 24.965254 0.7856192 4282664247
31.681498 24.959024 0.79052329 4284374609
31.676903 24.955153 0.79147458 4284571732
31.68075 24.958397 0.78751528 4283980360
31.6973 24.968431 0.77266753 4284244556
31.706276 24.973385 0.76574725 4283126077
31.708588 24.975334 0.76277167 4283323202
31.704113 24.972872 0.76373196 4282994490
31.707069 24.974058 0.76075554 4282731316
31.71015 24.976658 0.75678813 4282468394
31.712341 24.9772 0.75380361 4282665767
31.632704 24.928377 0.79806697 4282797604
31.62528 24.924734 0.80100363 4282797353
31.619265 24.920973 0.80394751 4282994736
31.613256 24.917215 0.80589145 4282862637
31.611727 24.915928 0.80587524 4282730537
31.610197 24.914639 0.80585897 4282532650
31.607258 24.913471 0.80583549 4282400555
31.606499 24.912834 0.80482739 4282202921
31.604204 24.9109 0.80480301 4282070567
31.600494 24.909082 0.80577135 4282004775
31.601271 24.909739 0.80377948 4281807397
31.601276 24.909744 0.80277956 4281543712
31.597569 24.907927 0.80374789 4281740577
31.594503 24.905344 0.80471539 4283185193
31.687605 24.964165 0.79258817 4284901728
31.686852 24.963533 0.79058009 4285099108
31.676357 24.957302 0.79548424 4284835935
31.674828 24.956015 0.79546803 4284046931
31.675604 24.956671 0.79347616 4283454794
31.664345 24.949797 0.79837215 4283191622
31.687696 24.96426 0.77658868 4282993978
31.686172 24.962976 0.77557248 4282796599
31.687712 24.964277 0.77358884 4282862135
31.689259 24.965584 0.77060515 4282993464
31.619375 24.922369 0.80595642 4282664245
31.615665 24.920551 0.80692476 4282401073
31.611835 24.917326 0.8078841 4282203694
31.609661 24.916801 0.80786872 4282466352
31.608131 24.915514 0.80785245 4282531118
31.606607 24.91423 0.80683625 4282202410
31.604435 24.913708 0.80682087 4281808165
31.603674 24.913069 0.80581278 4281740575
31.601381 24.911137 0.80578846 4282002206
31.596901 24.908669 0.80774862 4281740574
31.596907 24.908674 0.80674863 4281281819
31.597683 24.90933 0.80475688 4281805591
31.592438 24.906218 0.80670887 4283250464
31.652344 24.943586 0.82026839 4282598975
31.65542 24.946182 0.81730098 4282533182
31.659912 24.948662 0.81334084 4282927939
31.665173 24.95179 0.80838889 4284178005
31.6712 24.955564 0.80344504 4285230692
31.668261 24.954397 0.8034215 4284967521
31.667501 24.953758 0.80241346 4284441178
31.660727 24.949358 0.80434924 4283651661
31.656248 24.94689 0.80630946 4282665278
31.65626 24.946901 0.80430949 4282204727
31.656265 24.946907 0.80330956 4282138934
31.653206 24.94433 0.80327708 4282204465
31.662313 24.950705 0.79436582 4282665012
31.666803 24.953184 0.79040569 4282730806
31.666044 24.952547 0.78939766 4282599220
31.634567 24.933863 0.80310994 4282138155
31.631508 24.931286 0.80307746 4282072362
31.625492 24.927523 0.80602139 4282072363
31.618713 24.923117 0.80895716 4282006315
31.615004 24.921299 0.8099255 4281940522
31.61348 24.920017 0.8089093 4281743143
31.611305 24.919493 0.80889392 4281545764
31.611311 24.919498 0.80789393 4281414178
31.608252 24.916922 0.80786145 4281611043
31.605309 24.915749 0.80883795 4282136360
31.603014 24.913816 0.80881357 4281939238
31.601484 24.912527 0.8087973 4281742372
31.60008 24.912655 0.80779004 4282003747
31.598551 24.911366 0.80777383 4282199585
31.593307 24.908253 0.80972588 4281608988
31.592548 24.907616 0.80871785 4281347612
31.592558 24.907627 0.80671787 4282529314
31.628481 24.931309 0.84006166 4281216805
31.633741 24.934439 0.83510971 4280887840
31.638998 24.937563 0.83115774 4280887840
31.640545 24.938869 0.82817405 4281216805
31.642735 24.939409 0.82518959 4281348391
31.64274 24.939417 0.8241896 4281216804
31.645052 24.941366 0.82121402 4281414182
31.649544 24.943846 0.81725395 4282138162
31.650318 24.944502 0.81526214 4282336054
31.642775 24.939451 0.81818974 4282138675
31.64278 24.939457 0.81718981 4281941296
31.642792 24.939468 0.8151899 4281678124
31.640617 24.938946 0.81517452 4281414952
31.639858 24.938307 0.81416643 4281414952
31.640635 24.938963 0.81217462 4281480745
31.644361 24.940798 0.80820638 4281611816
31.645906 24.942104 0.80522275 4281545764
31.645147 24.941465 0.8042146 4281545764
31.648224 24.944061 0.80124724 4281545764
31.648235 24.944073 0.79924726 4281545764
31.621887 24.927097 0.80999857 4281282336
31.616642 24.923985 0.81195062 4281216287
31.614344 24.922047 0.81292623 4281216287
31.612175 24.921528 0.81191087 4281282080
31.60988 24.919596 0.81188649 4281347873
31.607706 24.919073 0.81187111 4281478946
31.607712 24.919079 0.81087118 4281544739
31.607723 24.91909 0.80887127 4281544739
31.606194 24.917801 0.808855 4281479459
31.603899 24.915869 0.80883068 4281216801
31.600189 24.914051 0.80979896 4281609507
31.59866 24.912764 0.80978274 4282199335
31.5979 24.912125 0.80877465 4282462249
31.596498 24.912251 0.80776739 4282658857
31.595739 24.911613 0.8067593 4282592030
31.592674 24.909031 0.8077268 4283248414
31.612827 24.923342 0.85292661 4281412899
31.615784 24.924526 0.84995019 4281544741
31.617331 24.925833 0.84696656 4281479206
31.618872 24.927132 0.84498286 4281348391
31.622597 24.928968 0.84101462 4281085219
31.628624 24.932741 0.83607078 4281216805
31.627865 24.932104 0.83506268 4281282598
31.630177 24.934053 0.83208716 4281282598
31.633131 24.93524 0.8291108 4281479976
31.631727 24.935366 0.82810354 4281611561
31.633913 24.935902 0.82611901 4281809197
31.63546 24.937206 0.82313538 4281612331
31.63393 24.935919 0.8231191 4281678124
31.628691 24.932812 0.82407123 4281809710
31.627161 24.931524 0.82405496 4281875503
31.627167 24.93153 0.82305503 4281875503
31.627943 24.932186 0.82106316 4281743917
31.628719 24.932842 0.81907135 4281612331
31.631802 24.935442 0.81510395 4281546023
31.633993 24.935984 0.81211942 4281677350
31.632584 24.936104 0.81211215 4281611557
31.630289 24.934172 0.81208783 4281414178
31.631065 24.934828 0.81009603 4281348385
31.628771 24.932894 0.81007165 4281282592
31.620583 24.92861 0.81300014 4281282592
31.619053 24.92732 0.81298393 4281282592
31.614578 24.924858 0.81394416 4281282336
31.611513 24.922276 0.81491166 4281216287
31.609339 24.921753 0.81489623 4281084701
31.607815 24.920469 0.81388003 4281084701
31.60705 24.919827 0.81387192 4281150494
31.605526 24.918543 0.81285566 4281347360
31.605532 24.918549 0.81185573 4281544739
31.604773 24.917912 0.81084764 4281544739
31.603371 24.918037 0.80984044 4281347873
31.601841 24.916748 0.80982417 4280953629
31.600311 24.915461 0.80980796 4281280542
31.595837 24.912998 0.81076813 4281804577
31.594307 24.911711 0.81075191 4282067491
31.589062 24.908598 0.81270397 4282329892
31.587538 24.907316 0.81168777 4282920995
31.609222 24.922915 0.85690379 4281413413
31.609228 24.92292 0.8559038 4281347873
31.610649 24.922812 0.85391122 4281413665
31.611423 24.923468 0.85191935 4281676836
31.61297 24.924774 0.84893572 4281676837
31.614511 24.926073 0.84695202 4281611045
31.615288 24.926729 0.84496021 4281611045
31.616709 24.92662 0.84296757 4281808424
31.615305 24.926746 0.84196031 4281742631
31.617491 24.927282 0.83997571 4281676838
31.621342 24.930532 0.83501649 4281677095
31.620579 24.929888 0.83500838 4281545766
31.619818 24.929251 0.83400035 4281414180
31.620594 24.929907 0.83200848 4281611559
31.620605 24.929918 0.83000857 4281677352
31.61754 24.927336 0.83097607 4281743145
31.616138 24.927462 0.82996881 4281808938
31.616144 24.927467 0.82896888 4281808938
31.618334 24.928009 0.82598436 4281743145
31.61911 24.928665 0.82399255 4281677352
31.619886 24.929321 0.82200068 4281677350
31.621433 24.930628 0.81901705 4281809190
31.62221 24.931282 0.81702524 4281677604
31.619909 24.929344 0.81800079 4281611811
31.618385 24.928062 0.81698465 4281546018
31.619162 24.928719 0.81499285 4281611811
31.616987 24.928194 0.81497747 4281677092
31.613157 24.924967 0.8159368 4281676836
31.61022 24.9238 0.81591326 4281676836
31.60792 24.921862 0.81688887 4281545250
31.606396 24.920578 0.81587267 4281545250
31.604986 24.9207 0.8158654 4281544993
31.603462 24.919416 0.8148492 4281544993
31.603468 24.919422 0.81384927 4281676579
31.602709 24.918785 0.81284112 4281873445
31.60195 24.918146 0.81183308 4282004774
31.601191 24.917507 0.81082499 4281808163
31.599016 24.916985 0.81080961 4281676832
31.597486 24.915695 0.81079334 4281544481
31.595192 24.913763 0.81076902 4281543716
31.590719 24.911301 0.81172919 4281542174
31.585474 24.90819 0.8136813 4281803548
31.607801 24.923023 0.85889649 4281478952
31.607807 24.923029 0.85789651 4281216034
31.607819 24.92304 0.85589653 4281413666
31.607059 24.922403 0.8548885 4281479458
31.607065 24.922409 0.85388851 4281676836
31.607841 24.923065 0.8518967 4281545251
31.608618 24.923721 0.84990489 4281808424
31.607859 24.923082 0.8488968 4281611045
31.607864 24.923088 0.84789681 4281676838
31.607876 24.9231 0.8458969 4281676838
31.608652 24.923756 0.84390509 4281676838
31.610193 24.925056 0.84192139 4281677095
31.610205 24.925068 0.83992147 4281611559
31.610979 24.925724 0.83792967 4281743145
31.61022 24.925085 0.83692157 4281743145
31.610226 24.925091 0.83592159 4281743145
31.609467 24.924454 0.83491349 4281677352
31.609472 24.924459 0.83391356 4281611559
31.609484 24.924471 0.83191359 4281611559
31.611025 24.92577 0.82992989 4281677352
31.611036 24.925783 0.82792997 4281677352
31.611813 24.926437 0.82593817 4281808936
31.611818 24.926445 0.82493818 4281677604
31.612595 24.927101 0.82294643 4281677604
31.612606 24.927113 0.82094646 4281743397
31.612612 24.927118 0.81994647 4281809190
31.612617 24.927124 0.81894654 4281940776
31.611094 24.92584 0.81793028 4282006057
31.609564 24.924553 0.81791407 4282005801
31.606625 24.923386 0.81789052 4282005801
31.605095 24.922096 0.81787431 4281742629
31.603571 24.920815 0.81685811 4281874215
31.602806 24.92017 0.81685001 4281939751
31.601402 24.920296 0.81584275 4281939751
31.600643 24.919659 0.81483465 4282005544
31.599113 24.918369 0.81481844 4282202410
31.598354 24.917732 0.81381035 4282465325
31.597595 24.917093 0.81280226 4282466093
31.595423 24.916569 0.81278682 4282597934
31.594664 24.915932 0.81177878 4282597169
31.591599 24.913349 0.81274623 4282859576
31.587124 24.910887 0.81370652 4282726448
31.608669 24.925058 0.86191344 4281743409
31.607904 24.924416 0.86190534 4281414700
31.606503 24.924541 0.86089814 4281414698
31.605743 24.923903 0.85988998 4281349159
31.605755 24.923914 0.85789007 4281151265
31.604996 24.923277 0.85688198 4281216799
31.605001 24.923283 0.85588199 4281084954
31.604242 24.922644 0.85487396 4281545246
31.604254 24.922655 0.85287398 4281676834
31.604258 24.922661 0.85187405 4281939751
31.604263 24.922667 0.85087407 4281742629
31.603504 24.922029 0.84986597 4281808422
31.603516 24.922041 0.84786606 4281940007
31.603521 24.922047 0.84686607 4282005799
31.605068 24.923353 0.84388244 4281874214
31.605844 24.924009 0.84189057 4281742629
31.60585 24.924015 0.84089065 4281940007
31.605856 24.924021 0.83989066 4281808420
31.605097 24.923382 0.83888257 4281808676
31.605108 24.923393 0.83688265 4281743395
31.605114 24.923399 0.83588272 4281743395
31.605125 24.923412 0.83388275 4281809188
31.605902 24.924068 0.83189094 4281809189
31.605907 24.924074 0.83089101 4281743397
31.605913 24.92408 0.82989103 4281874470
31.60746 24.925385 0.82690734 4282005799
31.607466 24.925392 0.82590735 4282071593
31.607477 24.925404 0.82390743 4282071594
31.607483 24.925409 0.82290751 4282071594
31.607492 24.925421 0.82090753 4282137387
31.607498 24.925426 0.81990761 4282071594
31.606739 24.924788 0.81889951 4282005801
31.605209 24.9235 0.8188833 4282071594
31.603043 24.922981 0.81786788 4282268716
31.600742 24.921043 0.81884354 4282268461
31.599983 24.920404 0.81783539 4282334255
31.599224 24.919767 0.8168273 4282334255
31.598465 24.919128 0.81581926 4282268462
31.594755 24.917311 0.81678754 4282400048
31.593225 24.916023 0.81677133 4282663220
31.592466 24.915384 0.81576324 4282991415
31.590298 24.914865 0.81474793 4283188025
31.589533 24.914223 0.81473976 4283253825
31.58506 24.91176 0.81569999 4283648847
31.611063 24.928377 0.86594665 4282070320
31.609533 24.927088 0.86593044 4282005297
31.60813 24.927216 0.86492318 4281742382
31.60737 24.926577 0.86391509 4281611566
31.605846 24.925295 0.86289889 4281217065
31.605082 24.92465 0.86289072 4281085735
31.605093 24.924662 0.86089087 4281019940
31.605099 24.924667 0.85989088 4280822815
31.60434 24.92403 0.85888278 4280953886
31.604351 24.924042 0.85688287 4281151006
31.602947 24.924168 0.85587561 4281084954
31.602188 24.923529 0.85486752 4281611039
31.601423 24.922886 0.85485941 4281874213
31.601435 24.922897 0.85285944 4282005544
31.600676 24.922258 0.8518514 4281940008
31.599916 24.921619 0.85084325 4281874215
31.599922 24.921627 0.84984332 4281676835
31.599934 24.921638 0.84784341 4281742627
31.599939 24.921644 0.84684342 4281808421
31.600716 24.9223 0.84485161 4281808422
31.600721 24.922306 0.84385163 4281940007
31.600733 24.922318 0.84185171 4282005799
31.601509 24.922974 0.8398599 4282006055
31.601515 24.922979 0.83885992 4281940774
31.601526 24.922991 0.83686 4281940774
31.601532 24.922997 0.83586001 4282072360
31.602306 24.923653 0.83386821 4282138154
31.601547 24.923014 0.83286011 4282138155
31.601553 24.923021 0.83186018 4282269228
31.603865 24.924971 0.8288846 4282268971
31.605286 24.924862 0.82689196 4282334765
31.605297 24.924873 0.82489204 4282268973
31.604658 24.925644 0.82389289 4282268973
31.60467 24.925655 0.82189298 4282268973
31.60391 24.925018 0.82088488 4282203180
31.603146 24.924374 0.82087678 4282268973
31.602386 24.923735 0.81986868 4282466352
31.601627 24.923098 0.81886059 4282597681
31.600098 24.921808 0.81884438 4282531633
31.597929 24.921291 0.81782895 4282597427
31.59717 24.920652 0.81682092 4282860599
31.59564 24.919365 0.81680465 4283123771
31.590397 24.916252 0.81875676 4283518529
31.585922 24.91379 0.81971693 4283847494
31.585157 24.913145 0.81970882 4284109896
31.583633 24.911863 0.81869262 4284174920
31.616526 24.934284 0.86801243 4281677353
31.614231 24.93235 0.86798805 4281545766
31.611937 24.930418 0.86796367 4281348644
31.609762 24.929895 0.86794829 4281217571
31.608238 24.928612 0.86693209 4281085985
31.606709 24.927324 0.86691582 4281085985
31.605949 24.926685 0.86590773 4281151265
31.605961 24.926697 0.86390781 4281019422
31.604559 24.926825 0.86290056 4281019165
31.603798 24.926186 0.86189246 4281150494
31.603035 24.925541 0.86188436 4281150494
31.603045 24.925552 0.85988444 4281216287
31.60305 24.92556 0.85888445 4281216287
31.602291 24.924921 0.85787636 4281216287
31.601532 24.924282 0.85686833 4281347873
31.600773 24.923645 0.85586017 4281676325
31.600014 24.923006 0.85485214 4282005540
31.598612 24.923132 0.85384488 4282137121
31.597853 24.922495 0.85283679 4282006049
31.596323 24.921206 0.85282058 4281808671
31.596334 24.921217 0.8508206 4281677085
31.596338 24.921223 0.84982067 4281611292
31.596344 24.921228 0.84882069 4281676830
31.59712 24.921885 0.84682888 4282005539
31.597132 24.921896 0.84482896 4282334505
31.597908 24.922552 0.84283715 4282466091
31.598684 24.923208 0.84084535 4282400298
31.599461 24.923864 0.83885348 4282400298
31.599466 24.92387 0.83785355 4282531885
31.600887 24.923761 0.83586091 4282466093
31.600893 24.923767 0.83486092 4282399787
31.600904 24.923779 0.83286095 4282531116
31.60091 24.923786 0.83186102 4282662704
31.602457 24.925091 0.82887733 4282399534
31.602461 24.925097 0.82787734 4282596912
31.602472 24.92511 0.82587743 4282465325
31.603249 24.925764 0.82388562 4282465324
31.603254 24.92577 0.82288569 4282465323
31.601725 24.924482 0.82286948 4282531373
31.601736 24.924494 0.82086951 4282531886
31.600334 24.924622 0.81986225 4282860598
31.598804 24.923332 0.81984603 4283255359
31.598045 24.922693 0.81883794 4283386949
31.597286 24.922056 0.81782979 4283847247
31.59127 24.918293 0.82077372 4284373596
31.586796 24.915831 0.82173395 4284307552
31.587572 24.916487 0.81974214 4284439140
31.583736 24.913254 0.82170147 4284702315
31.617399 24.936325 0.87002939 4281413924
31.613569 24.933098 0.87098879 4281216803
31.611397 24.932575 0.87097341 4281085216
31.609873 24.931292 0.86995715 4281019422
31.607578 24.929359 0.86993283 4280888093
31.605404 24.928837 0.86991739 4280888606
31.604645 24.928198 0.86890936 4280822813
31.603886 24.927559 0.86790127 4280691227
31.603897 24.92757 0.86590135 4280756507
31.603903 24.927578 0.86490136 4280822043
31.603914 24.927589 0.86290139 4281084958
31.603155 24.92695 0.86189336 4280821529
31.603161 24.926956 0.86089337 4281282080
31.603167 24.926962 0.85989338 4281413666
31.602407 24.926325 0.85888535 4281282080
31.601648 24.925686 0.85787719 4281216287
31.600245 24.925812 0.85687 4281347873
31.599485 24.925175 0.8558619 4281742118
31.597956 24.923885 0.85584563 4282005540
31.597197 24.923246 0.8548376 4281939742
31.596437 24.922609 0.8538295 4281611291
31.593498 24.92144 0.85380602 4281545499
31.592739 24.920803 0.85279787 4281611292
31.592745 24.920809 0.85179794 4281545499
31.592756 24.92082 0.84979802 4281676830
31.593533 24.921476 0.84780616 4282137125
31.594309 24.922132 0.84581435 4282531884
31.595085 24.922789 0.84382254 4282268712
31.597269 24.923323 0.841838 4282729263
31.598045 24.923979 0.83984619 4282795056
31.598057 24.923992 0.83784628 4282663471
31.599598 24.925291 0.83586258 4282466093
31.600374 24.925947 0.83387077 4282399787
31.60038 24.925953 0.83287078 4282596909
31.600391 24.925964 0.83087087 4282728497
31.601168 24.92662 0.82887906 4282662706
31.601173 24.926626 0.82787907 4282662705
31.600414 24.925989 0.82687098 4282662704
31.601191 24.926645 0.82487917 4282925875
31.601202 24.926657 0.82287925 4282860081
31.599672 24.925367 0.82286304 4282926131
31.598913 24.92473 0.82185489 4283321402
31.599689 24.925385 0.81986308 4284110665
31.597389 24.923447 0.82083869 4284834391
31.60467 24.929506 0.88591772 4282072108
31.609159 24.931986 0.88195765 4281940522
31.611488 24.933954 0.87598217 4281019420
31.610729 24.933315 0.87497413 4280887834
31.609205 24.932034 0.87395787 4280953627
31.607031 24.931509 0.87394249 4281019420
31.606272 24.930872 0.8729344 4280888347
31.606277 24.930878 0.87193447 4280822811
31.605518 24.930239 0.87092638 4280757018
31.603994 24.928957 0.86991012 4280757018
31.603235 24.928318 0.86890209 4280691225
31.603241 24.928324 0.8679021 4280625432
31.604017 24.92898 0.86591029 4280756761
31.604029 24.928991 0.86391038 4280953627
31.60327 24.928354 0.86290228 4281282336
31.603275 24.92836 0.8619023 4281347873
31.601871 24.928486 0.8608951 4281150494
31.601877 24.928492 0.85989511 4280887322
31.601118 24.927853 0.85888702 4281216287
31.600359 24.927216 0.85787892 4281544739
31.598835 24.925932 0.85686272 4281413153
31.598076 24.925295 0.85585463 4281610532
31.596666 24.925415 0.85584736 4281808422
31.595142 24.924133 0.85483116 4281676834
31.593613 24.922844 0.85481489 4281413919
31.592089 24.921562 0.85379875 4281348639
31.589916 24.921038 0.85378331 4281282847
31.589157 24.920401 0.85277522 4281085213
31.589933 24.921055 0.85078341 4281545507
31.589939 24.921062 0.84978348 4282203180
31.590714 24.921717 0.84779161 4282532146
31.592905 24.922258 0.84480715 4282466354
31.594446 24.923559 0.84282345 4282532148
31.595993 24.924866 0.83983976 4282071598
31.596769 24.925522 0.83784795 4282202929
31.598953 24.926056 0.83586341 4282860860
31.6005 24.927362 0.83287972 4282926653
31.599735 24.926718 0.83287162 4283123775
31.600512 24.927374 0.83087987 4283189566
31.601288 24.92803 0.828888 4283189564
31.600529 24.927391 0.82787991 4283123774
31.59977 24.926754 0.82687187 4283584328
31.599781 24.926765 0.8248719 4284373591
31.599787 24.926771 0.82387197 4284176216
31.599028 24.926132 0.82286388 4284044891
31.596853 24.92561 0.8228485 4284637031
31.59659 24.926619 0.89085519 4281611557
31.601851 24.929749 0.88590318 4281282592
31.605572 24.931578 0.88293493 4281151006
31.607113 24.932878 0.88095123 4281019420
31.607124 24.93289 0.87895131 4280887834
31.60713 24.932896 0.87795132 4280822041
31.606371 24.932257 0.87694323 4280756248
31.604847 24.930975 0.87592703 4280756248
31.603443 24.931101 0.87491983 4280756248
31.602684 24.930464 0.87391174 4280559382
31.60269 24.93047 0.87291175 4280757018
31.602695 24.930475 0.87191176 4280625432
31.601936 24.929836 0.87090373 4280691225
31.601948 24.929848 0.86890376 4280691225
31.601189 24.929211 0.86789572 4280888604
31.601965 24.929865 0.86590385 4281085726
31.601971 24.929873 0.86490387 4281085213
31.60121 24.929234 0.86389583 4281150750
31.601221 24.929245 0.86189586 4281216287
31.600456 24.9286 0.86188775 4281545252
31.600468 24.928612 0.85988784 4281545252
31.599709 24.927975 0.85887975 4281611045
31.598307 24.928101 0.85787249 4281807911
31.597548 24.927462 0.85686439 4281873704
31.596018 24.926174 0.85684818 4282005290
31.595259 24.925535 0.85584009 4281676836
31.592319 24.924368 0.85581654 4281347869
31.59079 24.92308 0.85580033 4281216540
31.588495 24.921146 0.85577595 4281019674
31.586966 24.919859 0.85575974 4281019675
31.584797 24.91934 0.85474437 4281282592
31.585573 24.919996 0.85275257 4281940265
31.585579 24.920002 0.85175258 4282137387
31.586355 24.920658 0.84976077 4281742630
31.590082 24.922495 0.84579253 4281611045
31.593801 24.924324 0.84282428 4281611046
31.596113 24.926273 0.8398487 4281676840
31.59766 24.92758 0.83686507 4283650375
31.599201 24.928881 0.83488137 4285689959
31.600622 24.928772 0.83288872 4285558373
31.599218 24.928898 0.83188146 4284637014
31.599224 24.928904 0.83088154 4283781703
31.602179 24.93009 0.82790512 4283781701
31.601419 24.929451 0.82689703 4283847497
31.598482 24.928284 0.82687354 4284571223
31.599258 24.92894 0.82488173 4285360486
31.589924 24.923615 0.89479989 4281348387
31.59441 24.926088 0.89183974 4280953629
31.598257 24.929333 0.88788044 4280756250
31.601212 24.930519 0.88490409 4280624664
31.601988 24.931175 0.88291228 4280690457
31.601994 24.931181 0.88191229 4280690457
31.602005 24.931192 0.87991238 4280690457
31.602011 24.931198 0.87891239 4280690457
31.601252 24.930559 0.8779043 4280690457
31.600492 24.929922 0.8768962 4280624664
31.600504 24.929934 0.87489629 4280690456
31.60051 24.929939 0.8738963 4280690455
31.599871 24.93071 0.87289721 4280755992
31.599882 24.930721 0.87089729 4281018908
31.599888 24.930727 0.86989731 4281150494
31.599899 24.930738 0.86789739 4281413666
31.599905 24.930746 0.8668974 4281413411
31.599916 24.930758 0.86489749 4281413155
31.599922 24.930763 0.8638975 4281741864
31.599163 24.930124 0.86288941 4281872938
31.599169 24.93013 0.86188948 4282530869
31.59918 24.930141 0.85988951 4282925628
31.598421 24.929504 0.85888147 4282991164
31.597662 24.928865 0.85787332 4282530613
31.596132 24.927578 0.85785711 4282530613
31.593964 24.927059 0.85684174 4282530613
31.592434 24.925772 0.85682553 4281544743
31.590139 24.923838 0.85680115 4280953631
31.5872 24.92267 0.85677767 4281282339
31.584137 24.920088 0.85774511 4281479461
31.581198 24.918921 0.85772163 4281479206
31.580439 24.918282 0.85671353 4281479207
31.603819 24.932775 0.82993025 4287465869
31.60306 24.932137 0.82892221 4286281596
31.571978 24.913713 0.90764046 4281085215
31.582483 24.919956 0.90073645 4280822043
31.590811 24.925669 0.89481699 4280756250
31.593121 24.927618 0.89184141 4280624664
31.596077 24.928804 0.88886505 4280493078
31.598389 24.930754 0.88588947 4280427285
31.599165 24.93141 0.88389766 4280558871
31.599171 24.931416 0.88289773 4280624664
31.599947 24.932072 0.88090593 4280690457
31.599958 24.932083 0.87890595 4280690457
31.599199 24.931446 0.87789792 4280690457
31.599205 24.931452 0.87689793 4280822043
31.599216 24.931463 0.87489802 4281019421
31.599222 24.931469 0.87389803 4281019420
31.599228 24.931475 0.87289804 4281216543
31.599237 24.931486 0.87089813 4281413666
31.599243 24.931492 0.86989814 4281611045
31.599255 24.931503 0.86789823 4281874217
31.586445 24.924604 0.89778608 4280295701
31.592472 24.928377 0.89284223 4280361493
31.594013 24.929678 0.89085859 4280493078
31.595558 24.930984 0.8878749 4280427285
31.596334 24.931639 0.88588309 4280427285
31.597111 24.932295 0.88389128 4280558871
31.598526 24.93218 0.88289857 4280690457
31.599302 24.932837 0.88090676 4280756250
31.599314 24.932848 0.87890685 4280756250
31.598555 24.932211 0.87789875 4280887578
31.59856 24.932217 0.87689877 4281150492
31.599337 24.932873 0.87490696 4281347872
31.599348 24.932884 0.87290704 4281742118
31.598589 24.932245 0.87189895 4282005033
31.598595 24.932251 0.87089896 4282136362
31.597191 24.932379 0.8698917 4282399536
31.576824 24.920416 0.90470719 4280230678
31.584381 24.925478 0.89977962 4280427544
31.588106 24.927313 0.89581138 4280427287
31.591948 24.930552 0.89285207 4280361493
31.594139 24.931093 0.88986754 4280427285
31.59568 24.932392 0.88788384 4280558871
31.596457 24.933048 0.88589203 4280624664
31.597233 24.933704 0.88390023 4280690457
31.597239 24.93371 0.8829003 4280953629
31.598783 24.935017 0.87991661 4281151008
31.598789 24.935022 0.87891662 4281282594
31.59803 24.934383 0.87790859 4281545508
31.598042 24.934397 0.87590861 4281940008
31.598047 24.934402 0.87490869 4282137388
31.598059 24.934414 0.87290871 4282202669
31.5973 24.933775 0.87190062 4282531377
31.596535 24.93313 0.87189251 4282531120
31.575405 24.920525 0.90669984 4280230170
31.58078 24.925056 0.90275687 4280295706
31.586042 24.928186 0.89780492 4280295706
31.589764 24.930016 0.8948366 4280427291
31.592838 24.93261 0.89186919 4280361497
31.595806 24.933807 0.88689286 4280822046
31.596582 24.934464 0.88490105 4280887838
31.597353 24.935114 0.88390917 4281348132
31.598129 24.93577 0.88191742 4281808426
31.598906 24.936426 0.87992561 4282137390
31.599682 24.937082 0.87793374 4282268975
31.600456 24.937738 0.87594193 4282203181
31.598932 24.936455 0.87492573 4282137387
31.598173 24.935816 0.87391764 4281940522
31.597414 24.935179 0.87290961 4281941292
31.578596 24.92452 0.90474141 4280230170
31.583851 24.927645 0.90078938 4280361499
31.587698 24.930889 0.89683014 4280493085
31.603643 24.941729 0.87498343 4282334768
31.602119 24.940447 0.87396723 4282203181
31.598289 24.93722 0.87492663 4282137387
31.56402 24.929911 1.4807097 4285291548
31.566198 24.930439 1.4797251 4285028889
31.568499 24.932377 1.4787495 4284765976
31.572973 24.934839 1.4777893 4284634649
31.573744 24.93549 1.4767975 4284503580
31.577574 24.938717 1.4758381 4284175390
31.582806 24.941816 1.475886 4283978272
31.586636 24.945044 1.4749266 4284768561
31.612831 24.980732 0.97926831 4282269491
31.586369 24.962353 0.98901069 4282335282
31.576529 24.95537 0.99191397 4282335024
31.561445 24.945274 0.99676931 4281808422
31.552376 24.938942 0.99868077 4281808423
31.539593 24.930786 1.0025605 4281940010
31.614586 24.984821 0.98230237 4283453002
31.607691 24.979012 0.98422921 4282795327
31.583538 24.962584 0.99099606 4281940526
31.577536 24.958832 0.99194002 4281743145
31.571411 24.953672 0.99287504 4281808680
31.562336 24.947334 0.99578643 4281940008
31.554798 24.942289 0.99771416 4282268974
31.542013 24.934134 1.0015939 4282532147
31.536655 24.929617 1.002537 4282795576
31.529116 24.924574 1.0044647 4283059005
31.523111 24.920822 1.0054088 4283190591
31.520052 24.918245 1.0053762 4283059005
31.589001 24.968491 0.99306178 4282400311
31.583641 24.963974 0.99400491 4282005551
31.575338 24.958286 0.99592447 4281611047
31.568569 24.953892 0.99686033 4281874218
31.56551 24.951315 0.99682784 4281874217
31.561043 24.948858 0.99678808 4282071853
31.555033 24.945103 0.99873203 4282335282
31.548908 24.939943 0.99966705 4282598454
31.54137 24.934898 1.0015948 4282795833
31.536901 24.932442 1.001555 4282730040
31.532307 24.92857 1.0025063 4282795833
31.527067 24.925465 1.0034584 4282730297
31.524775 24.923532 1.0034339 4282599224
31.52095 24.920311 1.0033934 4282599224
31.518776 24.919786 1.003378 4282467638
31.574753 24.960396 1.0069339 4284042060
31.573229 24.959112 1.0059178 4283779145
31.575535 24.961056 1.0039421 4283318851
31.576311 24.961712 1.0019504 4282727483
31.578495 24.962248 0.99996585 4282333494
31.577736 24.961609 0.99895769 4281873711
31.572502 24.958509 0.99890983 4281676588
31.568674 24.955282 0.99986923 4281808172
31.565741 24.954121 0.99884576 4281874219
31.560381 24.949606 0.99978888 4282597941
31.558207 24.949081 0.9997735 4282926905
31.553617 24.945217 0.99972475 4283387713
31.549145 24.942755 1.000685 4282795833
31.54455 24.938883 1.0016361 4282927419
31.538546 24.935133 1.0025802 4282861626
31.537022 24.933851 1.0015639 4282598454
31.533962 24.931274 1.0015315 4282532661
31.53026 24.929462 1.0014999 4282664504
31.527966 24.927528 1.0014755 4282730810
31.525671 24.925596 1.0014511 4282796603
31.524147 24.924314 1.000435 4282533431
31.598358 24.978973 1.0041767 4283322688
31.575615 24.962425 1.0109509 4283190074
31.569611 24.958673 1.0118948 4283058489
31.568851 24.958036 1.0108868 4282663731
31.568863 24.958048 1.0088868 4282597938
31.568869 24.958054 1.0078869 4282729525
31.569645 24.95871 1.005895 4282334768
31.568886 24.958071 1.004887 4282334769
31.568127 24.957434 1.0038788 4282137391
31.567373 24.9568 1.0018709 4282203441
31.564314 24.954224 1.0018383 4282269491
31.561377 24.953056 1.0018148 4282664249
31.558317 24.95048 1.0017824 4283059007
31.555258 24.947903 1.0017499 4283321921
31.553734 24.946619 1.0007337 4283387456
31.548494 24.943514 1.0016857 4283124799
31.544664 24.940287 1.0026451 4282730812
31.54096 24.938475 1.0026135 4282730300
31.536371 24.93461 1.0025648 4282795837
31.534843 24.933321 1.0025486 4282926653
31.531139 24.931509 1.0025169 4283057982
31.528845 24.929577 1.0024925 4283386689
31.528086 24.928938 1.0014845 4283518017
31.525797 24.927011 1.0004601 4283386688
31.523623 24.926489 1.0004448 4282400050
31.616615 24.99305 1.0003629 4283060290
31.595402 24.977789 1.0071532 4283060802
31.581854 24.968987 1.0110248 4283191102
31.572786 24.962654 1.0129362 4283189816
31.566662 24.957495 1.0138713 4282795316
31.564493 24.956978 1.0128559 4282795317
31.563734 24.956339 1.0118479 4282795317
31.562975 24.9557 1.0108397 4282663731
31.562981 24.955706 1.0098398 4282466353
31.562992 24.955717 1.0078399 4282137389
31.563768 24.956373 1.0058481 4282400562
31.562239 24.955086 1.0058318 4282400563
31.560715 24.953802 1.0048156 4282598199
31.559191 24.95252 1.0037994 4282730042
31.556896 24.950588 1.003775 4283059007
31.553963 24.949427 1.0027516 4283322179
31.550898 24.946844 1.0037191 4283387714
31.548609 24.944916 1.0026947 4283387456
31.543371 24.941811 1.0036469 4283059006
31.540312 24.939234 1.0036143 4282533433
31.536608 24.937422 1.0035827 4282664507
31.533548 24.934845 1.0035502 4282993216
31.532024 24.933563 1.002534 4283518790
31.530495 24.932274 1.0025178 4283650119
31.526791 24.930462 1.0024861 4283584068
31.526031 24.929823 1.0014781 4283452224
31.524508 24.928541 1.0004618 4283123516
31.522213 24.926609 1.0004375 4282794808
31.598581 24.981773 1.0071946 4282928188
31.580439 24.969103 1.0120175 4282796858
31.571365 24.962763 1.0149289 4282796602
31.566132 24.959663 1.0148811 4282927419
31.563072 24.957087 1.0148486 4282730297
31.560778 24.955153 1.0148243 4282862396
31.560789 24.955166 1.0128243 4282993981
31.56003 24.954527 1.0118163 4282928187
31.558628 24.954653 1.0108089 4282598965
31.560047 24.954544 1.0088164 4282203694
31.558643 24.95467 1.007809 4282269488
31.557884 24.954033 1.006801 4282466868
31.55636 24.952749 1.0057847 4282927419
31.554831 24.951462 1.0057685 4283059005
31.554842 24.951473 1.0037686 4283256384
31.551783 24.948896 1.0037361 4283322177
31.548845 24.947729 1.0037127 4283190592
31.547321 24.946445 1.0026964 4283059007
31.541191 24.94128 1.0046314 4282927677
31.537487 24.939468 1.0045998 4283059775
31.534428 24.936892 1.0045673 4283190848
31.531368 24.934315 1.0045348 4283585349
31.529202 24.933798 1.0035194 4283716935
31.527672 24.93251 1.0035032 4283322177
31.526148 24.931227 1.0024869 4282927162
31.524624 24.929945 1.0014708 4282992698
31.575304 24.967386 1.0159785 4282401844
31.569305 24.963642 1.0159225 4282467893
31.564713 24.959772 1.0168737 4282730809
31.561008 24.95796 1.0168421 4283059005
31.559484 24.956676 1.0158259 4282993469
31.557961 24.955395 1.0148097 4282928189
31.557966 24.9554 1.0138097 4282928188
31.557207 24.954762 1.0128016 4282928187
31.557219 24.954773 1.0108017 4282993723
31.556459 24.954136 1.0097936 4282993210
31.5557 24.953497 1.0087855 4282795832
31.554941 24.952858 1.0077775 4282927419
31.554182 24.952221 1.0067694 4283190591
31.552778 24.952347 1.0057621 4283190591
31.552784 24.952353 1.0047622 4283256384
31.550495 24.950426 1.0037378 4283322177
31.547436 24.947849 1.0037054 4283322178
31.545906 24.946562 1.0036891 4283453765
31.538372 24.941523 1.0046169 4283388228
31.534544 24.938295 1.0055763 4283651912
31.53084 24.936483 1.0055445 4283256641
31.527781 24.933907 1.0055121 4282993212
31.526257 24.932625 1.0044959 4282993212
31.525497 24.931986 1.0034878 4282861626
31.577713 24.970722 1.0170118 4282007084
31.574011 24.96891 1.0169802 4281941290
31.569416 24.96504 1.0179313 4282204205
31.564947 24.962584 1.0178916 4282796085
31.561123 24.959362 1.017851 4283190590
31.559599 24.95808 1.0168349 4283059007
31.557304 24.956148 1.0168105 4282729783
31.555901 24.956274 1.0158032 4282663731
31.555141 24.955635 1.0147952 4282663730
31.553617 24.954353 1.0137789 4282729522
31.553629 24.954365 1.0117791 4283124279
31.553635 24.95437 1.010779 4283650622
31.552111 24.953089 1.0097629 4283716415
31.552116 24.953094 1.0087628 4283584829
31.551357 24.952456 1.0077548 4283387451
31.551369 24.952467 1.0057548 4283190073
31.551374 24.952475 1.0047549 4283321661
31.54908 24.950541 1.0047306 4283519042
31.546146 24.949379 1.0037071 4283716422
31.544619 24.948092 1.0036908 4283848009
31.536314 24.942402 1.0056103 4283585096
31.531719 24.93853 1.0065616 4282664253
31.52866 24.935953 1.0065292 4282335545
31.524956 24.934143 1.0064975 4282270009
31.607845 24.992994 1.4613283 4284636204
31.579405 24.974747 1.0310454 4282796351
31.589312 24.9818 1.0161426 4282006317
31.583952 24.977285 1.0170857 4281875243
31.575649 24.971596 1.0190053 4281743913
31.568115 24.966558 1.019933 4281743912
31.565821 24.964624 1.0199087 4281809704
31.563526 24.962692 1.0198843 4282269998
31.560472 24.960121 1.0188519 4282927671
31.557535 24.958954 1.0188284 4283387969
31.555241 24.957022 1.018804 4283059007
31.554487 24.956388 1.016796 4282400818
31.552958 24.955101 1.0167797 4282795317
31.552198 24.954462 1.0157716 4283190074
31.551439 24.953823 1.0147635 4282992694
31.551451 24.953836 1.0127636 4282861107
31.550692 24.953197 1.0117555 4283255864
31.549288 24.953323 1.0107483 4283716415
31.549294 24.953329 1.0097483 4283650622
31.549305 24.953341 1.0077484 4283255865
31.549311 24.953348 1.0067484 4282992694
31.551495 24.953882 1.0047638 4283190075
31.547792 24.95207 1.0047323 4283387456
31.544733 24.949493 1.0046997 4283387457
31.543209 24.948212 1.0036836 4283124286
31.53414 24.941879 1.005595 4282598201
31.528131 24.938122 1.0075389 4282072116
31.525072 24.935545 1.0075065 4282072373
31.608736 24.995054 1.4603454 4284897314
31.578794 24.975548 1.0250466 4282335028
31.575735 24.972971 1.025014 4281742633
31.571268 24.970514 1.0249743 4281742888
31.567444 24.967293 1.0249337 4281808936
31.56592 24.966011 1.0239176 4281874983
31.565161 24.965372 1.0229094 4281940774
31.564402 24.964733 1.0219014 4281941031
31.560698 24.962921 1.0218697 4282007080
31.559174 24.961639 1.0208535 4282401581
31.556885 24.959713 1.0198292 4282927668
31.55459 24.957781 1.0198048 4283453245
31.552422 24.957262 1.0187894 4283254843
31.551662 24.956625 1.0177814 4282794290
31.550903 24.955986 1.0167732 4283583804
31.550144 24.955347 1.0157652 4284175939
31.549385 24.95471 1.014757 4283584057
31.549397 24.954721 1.0127572 4282991918
31.549402 24.954727 1.0117573 4282926123
31.548643 24.954088 1.0107491 4283452467
31.548649 24.954094 1.0097492 4283649846
31.549425 24.95475 1.0077573 4283452470
31.549437 24.954762 1.0057573 4283254837
31.549442 24.954767 1.0047574 4283386426
31.547148 24.952835 1.0047331 4283452222
31.542679 24.95038 1.0046933 4283452481
31.538084 24.946508 1.0056446 4283386947
31.530546 24.941463 1.0075723 4283189828
31.558422 24.962294 1.0398537 4282795070
31.562263 24.96553 1.0368944 4283058499
31.564573 24.967482 1.0339189 4284638043
31.566879 24.969425 1.0319433 4284045905
31.569065 24.969961 1.0299587 4282203700
31.566896 24.969444 1.0289434 4281808684
31.565372 24.968161 1.0279272 4281742633
31.563848 24.966879 1.026911 4281545509
31.563089 24.96624 1.0259029 4281677350
31.561565 24.964958 1.0248867 4281874983
31.560806 24.964319 1.0238786 4281940774
31.560047 24.96368 1.0228705 4281875238
31.55711 24.962513 1.0228471 4282007080
31.556349 24.961876 1.0218389 4282401581
31.554062 24.959948 1.0208145 4282861875
31.552536 24.958666 1.0197984 4283519038
31.551008 24.957376 1.0197822 4282991671
31.551018 24.95739 1.0177822 4282794290
31.549494 24.956106 1.016766 4283781183
31.548735 24.955469 1.0157579 4284044353
31.547976 24.95483 1.0147498 4283386678
31.548752 24.955486 1.012758 4282926125
31.547993 24.954847 1.01175 4282860330
31.546591 24.954973 1.0107427 4283386674
31.548004 24.954859 1.00975 4283781432
31.54878 24.955515 1.0077581 4283715642
31.549557 24.956171 1.0057664 4283583802
31.549562 24.956177 1.0047663 4283583805
31.545094 24.95372 1.0047266 4283715394
31.539736 24.949205 1.0056697 4284110411
31.557903 24.964472 1.0388635 4284504661
31.558674 24.965122 1.0378717 4282202676
31.560215 24.966423 1.035888 4282137139
31.560226 24.966434 1.0338881 4281940271
31.561647 24.966326 1.0318954 4281479975
31.560244 24.966452 1.0308882 4281217059
31.560249 24.966457 1.0298883 4281217571
31.55949 24.96582 1.0288801 4281020191
31.558731 24.965181 1.0278721 4281349155
31.557978 24.964548 1.025864 4281743653
31.557983 24.964554 1.024864 4281743394
31.556459 24.963272 1.0238478 4282006308
31.5557 24.962633 1.0228398 4282663980
31.554176 24.961351 1.0218235 4282992945
31.552652 24.96007 1.0208073 4283321397
31.550478 24.959545 1.0207919 4283780924
31.548954 24.958263 1.0197757 4283516984
31.548965 24.958275 1.0177758 4282660906
31.547436 24.956985 1.0177596 4283712824
31.546677 24.956348 1.0167514 4284041788
31.546688 24.95636 1.0147516 4283843895
31.546694 24.956366 1.0137515 4283318320
31.546705 24.956377 1.0117517 4283056174
31.545946 24.955738 1.0107435 4283846461
31.546717 24.956388 1.0097517 4284044355
31.547493 24.957045 1.0077599 4283781444
31.54751 24.957062 1.00476 4283255363
31.555714 24.963932 1.0418481 4284505177
31.556488 24.964588 1.0398562 4282859836
31.557264 24.965242 1.0378644 4281544746
31.55727 24.965248 1.0368645 4281610795
31.557281 24.965261 1.0348645 4281413927
31.557287 24.965267 1.0338646 4281151010
31.556528 24.964628 1.0328565 4281019680
31.55654 24.96464 1.0308565 4281349157
31.556545 24.964645 1.0298566 4281678121
31.556557 24.964657 1.0278567 4281546534
31.555798 24.96402 1.0268486 4282072618
31.555803 24.964025 1.0258486 4282335531
31.554405 24.964157 1.0238414 4282598445
31.553646 24.96352 1.0228333 4282992945
31.551352 24.961586 1.0228089 4283190324
31.550592 24.960949 1.0218009 4283518776
31.549833 24.96031 1.0207927 4283978303
31.548309 24.959028 1.0197766 4283648570
31.54755 24.958389 1.0187684 4282726699
31.546026 24.957108 1.0177523 4282791722
31.545267 24.956469 1.0167441 4282594342
31.546808 24.957769 1.0147605 4282857000
31.54682 24.957781 1.0127605 4283252527
31.546061 24.957142 1.0117525 4283714104
31.546066 24.957148 1.0107524 4284438598
31.546843 24.957804 1.0087607 4284241734
31.552883 24.964161 1.0438335 4282598209
31.553659 24.964817 1.0418416 4282202933
31.553671 24.964828 1.0398417 4281873706
31.553677 24.964834 1.0388417 4281544997
31.553682 24.96484 1.0378418 4281611045
31.553694 24.964851 1.0358418 4281479716
31.553699 24.964857 1.0348419 4281479973
31.552946 24.964226 1.0328338 4281414179
31.552952 24.964231 1.0318339 4281611557
31.553728 24.964888 1.029842 4281808936
31.554504 24.965544 1.0278503 4282203694
31.553745 24.964905 1.0268421 4282466608
31.553751 24.964911 1.0258422 4282532143
31.552992 24.964272 1.024834 4282795057
31.552233 24.963634 1.023826 4283254837
31.550709 24.962351 1.0228097 4283583546
31.547775 24.961189 1.0217863 4284109121
31.547016 24.960552 1.0207782 4284437834
31.546257 24.959913 1.0197701 4284371790
31.545498 24.959274 1.0187621 4283647297
31.543974 24.957993 1.0177459 4283054646
31.543215 24.957354 1.0167377 4282659888
31.544756 24.958654 1.0147541 4282923060
31.544762 24.95866 1.0137541 4283318332
31.550825 24.96504 1.044827 4281545521
31.550831 24.965046 1.0438271 4281216556
31.553015 24.965582 1.0418425 4281545003
31.553026 24.965593 1.0398426 4281281569
31.552267 24.964954 1.0388345 4281479204
31.552273 24.96496 1.0378345 4281413666
31.550869 24.965088 1.0368273 4281413923
31.55088 24.965099 1.0348274 4281611559
31.550886 24.965105 1.0338273 4281940523
31.550898 24.965117 1.0318274 4282335280
31.551668 24.965767 1.0308356 4282335280
31.553089 24.965658 1.0288429 4282532659
31.553101 24.96567 1.026843 4282598194
31.553106 24.965675 1.025843 4282597936
31.553118 24.965687 1.0238431 4282663471
31.550943 24.965164 1.0238277 4283254837
31.549419 24.963881 1.0228115 4284438855
31.547131 24.961954 1.0217872 4285688153
31.545601 24.960667 1.021771 4285951073
31.546377 24.961323 1.0197791 4285753443
31.547153 24.961979 1.0177873 4285423708
31.54563 24.960695 1.0167711 4284962643
31.5441 24.959408 1.0167549 4284765264
31.544111 24.959419 1.0147549 4284502092
31.545652 24.96072 1.0127712 4283581504
31.546429 24.961374 1.0107794 4283253309
31.548645 24.964512 1.0458115 4281150249
31.549421 24.965166 1.0438198 4281281835
31.550962 24.966467 1.041836 4281544746
31.550203 24.965828 1.040828 4281741606
31.550209 24.965836 1.0398281 4282070571
31.550985 24.96649 1.0378362 4282004778
31.549461 24.965208 1.0368201 4281873449
31.549467 24.965214 1.03582 4281807913
31.549479 24.965225 1.03382 4282202929
31.549484 24.965231 1.0328201 4282531895
31.550259 24.965887 1.0308284 4282466102
31.5518 24.967188 1.0288446 4282400052
31.552576 24.967844 1.0268528 4282136111
31.551817 24.967205 1.0258447 4283188543
31.551828 24.967216 1.0238448 4285358942
31.551069 24.966579 1.0228367 4286674545
31.548775 24.964645 1.0228124 4287595390
31.548016 24.964008 1.0218042 4288844944
31.546492 24.962725 1.0207881 4289568669
31.548044 24.964037 1.0168045 4288318605
31.548149 24.966715 1.0408216 4282070571
31.548155 24.966721 1.0398216 4281873192
31.548931 24.967377 1.0378298 4281741606
31.547407 24.966093 1.0368136 4281939242
31.547413 24.966099 1.0358136 4282071085
31.546654 24.965462 1.0348055 4282137136
31.546665 24.965473 1.0328056 4281939758
31.548206 24.966772 1.0308219 4281873965
