# .PCD v0.7 - Point Cloud Data file format
VERSION 0.7
FIELDS x y z rgba
SIZE 4 4 4 4
TYPE F F F U
COUNT 1 1 1 1
WIDTH 308
HEIGHT 1
VIEWPOINT 0 0 0 1 0 0 0
POINTS 308
DATA ascii
31.4214 24.822849 1.4862726 4283850811
31.401581 24.814022 1.4671078 4285230915
31.40605 24.816479 1.4671475 4285230398
31.412811 24.820868 1.4672116 4285295162
31.402454 24.816065 1.4691248 4284310330
31.402466 24.816076 1.4671248 4284572985
31.406935 24.818533 1.4671646 4284835640
31.413692 24.822914 1.4682287 4285163576
31.401041 24.816179 1.4701174 4284704838
31.401812 24.81683 1.4691256 4284243257
31.402582 24.817478 1.4681338 4284111668
31.405525 24.818653 1.4671574 4283980079
31.409349 24.821875 1.4671979 4284177710
31.416113 24.826262 1.467262 4284769587
31.396999 24.8153 1.5510921 4284641361
31.402691 24.818876 1.4701427 4284836424
31.402697 24.818882 1.4691427 4284638015
31.402702 24.818888 1.4681427 4284572219
31.404116 24.818773 1.4671501 4284440630
31.406416 24.820711 1.4661745 4284177710
31.40871 24.822645 1.4661988 4284177450
31.415474 24.827034 1.4662629 4284571179
31.394842 24.814795 1.5480767 4284443986
31.394089 24.814161 1.5460688 4283983430
31.406509 24.822092 1.4711832 4285165644
31.403582 24.820936 1.4691598 4285099081
31.403587 24.820942 1.4681598 4285361994
31.405003 24.820827 1.4671671 4285361734
31.405773 24.821476 1.4661753 4284966974
31.406544 24.822126 1.4651835 4284571957
31.408838 24.824059 1.4652078 4284439856
31.414835 24.827805 1.4652638 4284570928
31.420069 24.830904 1.4653116 4284899636
31.394968 24.816208 1.5470858 4284443981
31.39345 24.814932 1.5450697 4283983168
31.405882 24.822874 1.4681842 4286151250
31.406652 24.823524 1.4671923 4286019662
31.406658 24.82353 1.4661924 4285887817
31.408194 24.824823 1.4652086 4285624130
31.410494 24.826763 1.464233 4285294651
31.412666 24.827286 1.4642484 4285162808
31.414967 24.829226 1.4632728 4284899379
31.416502 24.830519 1.4622891 4284964913
31.420206 24.832331 1.4623207 4285227314
31.395088 24.817617 1.5470948 4285036888
31.394329 24.81698 1.5460867 4284773715
31.393576 24.816347 1.5440786 4284181323
31.393581 24.816353 1.5430787 4283720261
31.393587 24.816359 1.5420787 4283391294
31.409067 24.826866 1.4672257 4286611792
31.409079 24.826878 1.4652257 4286611538
31.409849 24.827528 1.4642339 4286414161
31.411379 24.828815 1.4642501 4286150992
31.413559 24.829346 1.4632655 4285295686
31.413565 24.829351 1.4622656 4285097794
31.41357 24.829357 1.4612656 4284965951
31.395967 24.819666 1.5481118 4285629025
31.394449 24.818388 1.5460956 4285102680
31.39369 24.817751 1.5450876 4284576081
31.392937 24.817118 1.5430795 4284180812
31.392942 24.817123 1.5420796 4283983431
31.392948 24.817129 1.5410795 4283588414
31.393719 24.81778 1.5400877 4283653440
31.425751 24.839605 1.4713953 4286545999
31.420534 24.836523 1.4683474 4286677331
31.417486 24.833958 1.466315 4286743126
31.411499 24.830225 1.4642591 4286677336
31.411505 24.830231 1.4632591 4286545753
31.410751 24.829597 1.461251 4286282068
31.410757 24.829605 1.4602511 4285887053
31.410763 24.829611 1.4592512 4285492035
31.396095 24.821079 1.5471208 4285826153
31.394577 24.819803 1.5451046 4285300063
31.393818 24.819164 1.5440966 4284905303
31.393059 24.818527 1.5430884 4284641871
31.391661 24.818659 1.5410813 4284115267
31.391666 24.818665 1.5400813 4283785277
31.393082 24.81855 1.5390886 4283850045
31.39385 24.819201 1.5380968 4283784512
31.416094 24.834097 1.4633079 4286611282
31.410877 24.831013 1.46026 4286742358
31.410118 24.830376 1.459252 4286742359
31.40707 24.82781 1.4572196 4286479188
31.406311 24.827171 1.4562114 4286018636
31.404148 24.82666 1.4541962 4285492291
31.404919 24.827311 1.4532043 4284900666
31.407858 24.828478 1.4532279 4285032508
31.410158 24.830416 1.4522523 4285163835
31.395462 24.821857 1.5451218 4285629026
31.393944 24.82058 1.5431056 4285168215
31.391781 24.820068 1.5410903 4284904783
31.391022 24.819429 1.5400821 4284443207
31.391027 24.819435 1.5390822 4284113217
31.391798 24.820086 1.5380903 4283718719
31.409481 24.831146 1.4582529 4287268704
31.405788 24.829346 1.4562213 4287334496
31.40427 24.82807 1.4542052 4286939737
31.403511 24.827431 1.453197 4286282319
31.402752 24.826792 1.452189 4285756231
31.401999 24.82616 1.4501809 4285558593
31.401239 24.825521 1.4491729 4285360955
31.402775 24.826817 1.4481891 4285229111
31.39407 24.821995 1.5421146 4285431641
31.393311 24.821356 1.5411065 4284970576
31.391148 24.820845 1.5390911 4284509512
31.390388 24.820206 1.5380831 4283982911
31.390394 24.820213 1.5370831 4283851067
31.391165 24.820862 1.5360912 4284048447
31.401342 24.826912 1.4521817 4286875223
31.400589 24.826281 1.4501736 4286283344
31.400595 24.826286 1.4491737 4285954637
31.4006 24.826292 1.4481736 4285362501
31.396908 24.824492 1.4461422 4284967744
31.396149 24.823854 1.445134 4285033281
31.395395 24.823221 1.443126 4284966976
31.39769 24.825153 1.4431504 4285032770
31.39572 24.824692 1.5421398 4285957471
31.393436 24.822771 1.5401155 4285167442
31.390509 24.821615 1.538092 4284838220
31.38975 24.820978 1.537084 4284180032
31.389755 24.820984 1.5360839 4283851068
31.389767 24.820995 1.5340841 4283851070
31.390532 24.82164 1.5340922 4283653183
31.392067 24.822933 1.5331085 4283784004
31.397028 24.825901 1.4461511 4286217811
31.397034 24.825907 1.4451511 4286020176
31.39551 24.824625 1.444135 4285427527
31.393991 24.823347 1.4421188 4285032770
31.395527 24.824642 1.441135 4284966721
31.381294 24.815279 1.430999 4285754944
31.395081 24.825462 1.5411407 4285891677
31.39139 24.823664 1.5391091 4285496918
31.389872 24.822386 1.5370929 4284838987
31.389112 24.821749 1.5360849 4284312643
31.389124 24.82176 1.5340849 4283917628
31.38913 24.821766 1.533085 4283587895
31.389894 24.822411 1.5330931 4283521846
31.394112 24.824757 1.4421277 4285756752
31.393353 24.824118 1.4411197 4285296459
31.391829 24.822836 1.4401034 4284836421
31.391075 24.822203 1.4380953 4284441920
31.389673 24.82233 1.4370881 4284310334
31.382818 24.816563 1.4320152 4286547294
31.379885 24.815399 1.4309918 4286348370
31.378366 24.814123 1.4289756 4285359930
31.376848 24.812847 1.4269594 4283582492
31.393034 24.826355 1.5401343 4286023262
31.389992 24.823795 1.5371019 4285496917
31.388468 24.822514 1.5360857 4284970573
31.387714 24.82188 1.5340776 4284443972
31.38772 24.821886 1.5330777 4284311618
31.387726 24.821892 1.5320777 4283982397
31.389788 24.823732 1.4380971 4284770885
31.387499 24.821806 1.4370728 4284376127
31.385981 24.82053 1.4350566 4284507713
31.384457 24.819248 1.4340403 4285034056
31.379999 24.816803 1.4320006 4285494606
31.377716 24.814882 1.4299763 4285953612
31.376192 24.813601 1.4289602 4285425723
31.375433 24.812962 1.4279521 4284504108
31.37327 24.81245 1.4259368 4284174629
31.376209 24.813618 1.4259603 4284569130
31.391636 24.826487 1.5381271 4286220645
31.388588 24.823921 1.5360947 4285825885
31.387835 24.82329 1.5340866 4285101904
31.386311 24.822006 1.5330704 4284509253
31.386316 24.822012 1.5320704 4284311616
31.381643 24.819494 1.4330258 4284639299
31.37859 24.816923 1.4319934 4284310591
31.376307 24.815002 1.4299691 4284376127
31.374783 24.813721 1.4289529 4284177978
31.372622 24.813208 1.4269376 4283915064
31.371862 24.812571 1.4259295 4283981116
31.369579 24.81065 1.4239053 4284112702
31.370344 24.811293 1.4239134 4283783737
31.388708 24.825331 1.5361036 4286220643
31.386425 24.82341 1.5340793 4286023006
31.385023 24.823536 1.5330721 4285430355
31.384268 24.822905 1.531064 4284772167
31.376423 24.816406 1.4309781 4284705349
31.374899 24.815123 1.4299618 4284705092
31.37273 24.814606 1.4289465 4284638529
31.371977 24.813972 1.4269384 4284309822
31.370453 24.812691 1.4259223 4284046909
31.368935 24.811415 1.4239061 4283849530
31.36894 24.81142 1.422906 4283783737
31.37047 24.812708 1.4229224 4283717686
31.384378 24.824301 1.5330729 4286548581
31.375784 24.817177 1.429979 4285690696
31.373615 24.81666 1.4289635 4285887819
31.372097 24.815382 1.4269474 4285427528
31.371338 24.814745 1.4259393 4284966980
31.370579 24.814106 1.4249312 4284506687
31.36982 24.813467 1.4239231 4284441153
31.37059 24.814117 1.4229313 4284441152
31.372126 24.815413 1.4219476 4284112186
31.37591 24.818592 1.428988 4285558854
31.375151 24.817953 1.4279798 4285953872
31.372982 24.817436 1.4269645 4286151254
31.372229 24.816803 1.4249564 4285756754
31.371469 24.816164 1.4239484 4285164876
31.371475 24.816172 1.4229484 4284638531
31.372246 24.81682 1.4219565 4284243772
31.373016 24.817471 1.4209647 4284375100
31.375196 24.818001 1.4199802 4284309048
31.379095 24.822584 1.4280294 4285951037
31.373873 24.819494 1.4259816 4286281031
31.372355 24.818218 1.4239655 4286347854
31.37236 24.818224 1.4229655 4286216528
31.372366 24.81823 1.4219655 4285624651
31.372372 24.818235 1.4209656 4285163588
31.373142 24.818886 1.4199737 4284702781
31.371618 24.817604 1.4189575 4284702781
31.370859 24.816965 1.4179494 4284505402
31.372482 24.819633 1.4229745 4285690184
31.372488 24.819639 1.4219744 4286019409
31.371729 24.819 1.4209664 4286282069
31.371735 24.819006 1.4199665 4286018641
31.369452 24.817085 1.4179422 4285360711
31.367926 24.815804 1.4169259 4284571195
31.364994 24.814642 1.4159025 4284373816
31.363476 24.813364 1.4138863 4284571195
31.363482 24.81337 1.4128863 4284636988
31.364252 24.81402 1.4118944 4284505402
31.365023 24.814671 1.4109026 4284046646
31.362061 24.813478 1.414879 4285558595
31.361301 24.812841 1.4138709 4285097787
31.361307 24.812847 1.4128709 4284768309
31.362078 24.813498 1.4118791 4284702516
31.362848 24.814148 1.4108872 4284374836
31.363619 24.814796 1.4098954 4284113462
31.359886 24.812956 1.4148636 4286216525
31.359892 24.812962 1.4138637 4286216268
31.360662 24.813612 1.4128717 4286018376
31.362198 24.814905 1.411888 4285557825
31.362968 24.815556 1.4108962 4284835387
31.364504 24.816851 1.4099125 4284574013
31.36528 24.817507 1.4079206 4284179255
31.357714 24.812431 1.4148482 4285031733
31.358484 24.813082 1.4138564 4285624129
31.360018 24.814377 1.4128727 4286150987
31.361553 24.81567 1.4118888 4286414672
31.362324 24.81632 1.410897 4286152274
31.364624 24.81826 1.4099214 4285297738
31.364635 24.818272 1.4079216 4284968773
31.363111 24.816988 1.4069053 4284837187
31.357075 24.813204 1.4138491 4284439855
31.36014 24.815786 1.4128816 4284769334
31.361675 24.81708 1.4118979 4285493570
31.363211 24.818375 1.4109142 4285889102
31.363981 24.819025 1.4099222 4286284633
31.363232 24.818398 1.4069142 4285692496
31.361708 24.817116 1.4058981 4285166152
31.360954 24.816483 1.40389 4284836679
31.362566 24.819139 1.410915 4284967224
31.364861 24.821072 1.4109393 4284639800
31.364866 24.821077 1.4099394 4285231941
31.364113 24.820444 1.4079313 4285626703
31.363354 24.819807 1.4069232 4286152796
31.361065 24.817881 1.4058989 4286284386
31.361071 24.817886 1.4048989 4286086500
31.358788 24.815966 1.4028746 4285625698
31.359558 24.816616 1.4018828 4285428070
31.360329 24.817265 1.4008909 4285362283
31.361097 24.817915 1.3998991 4286085754
31.361868 24.818565 1.3989073 4286941067
31.358143 24.81673 1.4028755 4287994246
31.358149 24.816736 1.4018755 4287007102
31.358919 24.817387 1.4008837 4286283385
31.358925 24.817392 1.3998837 4286151547
31.359695 24.818041 1.3988918 4285559414
31.358936 24.817404 1.3978838 4285822588
31.3582 24.816788 1.3928758 4288190616
31.358269 24.818144 1.4018846 4289243554
31.358274 24.818151 1.4008845 4288388245
31.35828 24.818157 1.3998846 4287467400
31.359051 24.818808 1.3988928 4286743934
31.358292 24.818169 1.3978846 4286217589
31.359085 24.818842 1.392893 4286217081
31.358326 24.818203 1.3918848 4286809727
31.358406 24.819571 1.3988936 4287336071
31.358412 24.819578 1.3978935 4287401863
31.358418 24.819584 1.3968936 4287467654
31.357676 24.818962 1.3928857 4285559151
31.356272 24.81909 1.3918784 4285691246
31.356277 24.819096 1.3908784 4285954162
31.356382 24.820486 1.3938873 4290492348
31.355623 24.819847 1.3928792 4288716191
31.354864 24.81921 1.3918711 4286874754
31.354868 24.819216 1.3908712 4285887859
31.354109 24.818577 1.3898631 4285756273
31.354879 24.819227 1.3888712 4285493101
31.354885 24.819233 1.3878713 4285295722
31.354126 24.818594 1.3868632 4285493102
31.351078 24.816031 1.3848307 4287664272
31.349571 24.814766 1.3808147 4291018935
31.354225 24.819981 1.390872 4289572267
31.353466 24.819342 1.389864 4287598477
31.355024 24.82066 1.3848803 4287071876
31.354269 24.820028 1.3828722 4288058512
31.35351 24.819389 1.3818642 4288716440
31.352751 24.81875 1.3808562 4288650387
31.355162 24.822086 1.3818895 4286085226
31.369141 24.836472 1.3870534 4289441184
31.370756 24.837847 1.3720701 4283257927
31.368587 24.83733 1.3710548 4283127101
31.373182 24.8412 1.3701035 4283127102
31.364267 24.836311 1.3660241 4282996029
