# .PCD v0.7 - Point Cloud Data file format
VERSION 0.7
FIELDS x y z rgba
SIZE 4 4 4 4
TYPE F F F U
COUNT 1 1 1 1
WIDTH 374
HEIGHT 1
VIEWPOINT 0 0 0 1 0 0 0
POINTS 374
DATA ascii
31.266991 24.979212 1.4083147 4286021707
31.266352 24.979982 1.4073156 4286548317
31.266357 24.979988 1.4063157 4287535210
31.267128 24.980639 1.4053239 4288588152
31.26646 24.98138 1.4093245 4286349913
31.266466 24.981386 1.4083246 4286678882
31.266472 24.981392 1.4073246 4287336559
31.266478 24.981398 1.4063246 4288389501
31.266483 24.981403 1.4053247 4289442443
31.265724 24.980766 1.4043165 4289705870
31.268147 24.985399 1.4243582 4289108896
31.268152 24.985405 1.4233582 4288648858
31.268044 24.984007 1.4213493 4288122771
31.267284 24.983368 1.4203413 4287333256
31.266586 24.982796 1.4083335 4287863156
31.266592 24.982801 1.4073336 4288455040
31.265041 24.982775 1.4323255 4290359733
31.265812 24.983425 1.4313337 4289964974
31.266703 24.985483 1.4303508 4289372836
31.267473 24.986134 1.4293588 4288780698
31.267479 24.986139 1.4283589 4288254866
31.267485 24.986145 1.427359 4287991949
31.266726 24.985508 1.4263508 4287597702
31.266731 24.985514 1.4253509 4287137149
31.266623 24.984116 1.423342 4286545009
31.265863 24.983479 1.422334 4286347627
31.265104 24.98284 1.4213258 4286282087
31.264345 24.982201 1.4203178 4286150499
31.263592 24.981569 1.4183097 4286347875
31.263597 24.981575 1.4173098 4286216288
31.263603 24.981581 1.4163097 4286413666
31.262697 24.980789 1.4413007 4290360756
31.262823 24.982204 1.4403098 4289834414
31.262707 24.980801 1.4393009 4289308072
31.262835 24.982216 1.4383099 4288913062
31.262724 24.980818 1.436301 4288649893
31.262087 24.98159 1.4353019 4288386723
31.263622 24.982883 1.4343181 4287991967
31.264391 24.983534 1.4333262 4287662482
31.264397 24.98354 1.4323263 4287267462
31.264402 24.983545 1.4313264 4287135875
31.265295 24.985605 1.4303435 4286872702
31.266066 24.986254 1.4293516 4286609529
31.266071 24.986261 1.4283516 4286610041
31.265312 24.985622 1.4273436 4286741882
31.265196 24.984219 1.4263346 4286873979
31.265322 24.985634 1.4253436 4286808184
31.265213 24.984236 1.4233347 4286808181
31.263689 24.982954 1.4223185 4286742385
31.26293 24.982315 1.4213104 4286676845
31.262941 24.982328 1.4193106 4286874222
31.262182 24.981689 1.4183024 4287071598
31.262188 24.981695 1.4173025 4286940011
31.262194 24.981701 1.4163024 4286940010
31.262964 24.982351 1.4153106 4287137902
31.2645 24.983644 1.4143269 4287467381
31.261419 24.98233 1.4393026 4286611829
31.261431 24.982342 1.4373026 4286546286
31.261436 24.982347 1.4363027 4286546281
31.261442 24.982353 1.4353027 4286677864
31.262978 24.983648 1.434319 4286743910
31.262983 24.983654 1.433319 4286612842
31.264519 24.984949 1.4323353 4286415724
31.264524 24.984955 1.4313353 4286415722
31.26465 24.98637 1.4303443 4286481513
31.266945 24.988302 1.4303687 4286613352
31.266191 24.987669 1.4283606 4286679142
31.265432 24.987032 1.4273525 4286942312
31.264673 24.986393 1.4263444 4287139690
31.264563 24.984995 1.4243356 4287205482
31.263803 24.984358 1.4233274 4287271274
31.26228 24.983074 1.4223112 4287336809
31.260761 24.981798 1.4202951 4287139429
31.260647 24.980394 1.4192861 4287336552
31.260773 24.98181 1.4182951 4287467882
31.261543 24.98246 1.4173033 4287402347
31.261549 24.982466 1.4163034 4287468398
31.263084 24.983761 1.4153196 4287665008
31.263975 24.985819 1.4143367 4288124791
31.264746 24.986469 1.4133449 4287993719
31.262287 24.984365 1.4423195 4286808194
31.261528 24.983728 1.4413115 4286874240
31.261534 24.983734 1.4403114 4286742907
31.260775 24.983095 1.4393034 4286743415
31.260786 24.983107 1.4373034 4286941044
31.260792 24.983112 1.4363035 4287138418
31.260798 24.983118 1.4353036 4287270001
31.262333 24.984413 1.4343199 4287533426
31.262339 24.984419 1.4333198 4287599737
31.263229 24.986479 1.4323369 4287271033
31.264 24.987129 1.4313451 4287271031
31.264771 24.987778 1.4303533 4287402615
31.2663 24.989067 1.4303695 4287600247
31.266312 24.989079 1.4283695 4287600244
31.266317 24.989084 1.4273696 4287731828
31.265558 24.988445 1.4263616 4287929206
31.264034 24.987164 1.4253453 4287929205
31.263281 24.98653 1.4233372 4287863411
31.261637 24.983839 1.4223121 4288126325
31.261642 24.983845 1.4213121 4287863152
31.260889 24.983213 1.4193041 4287994482
31.260895 24.983219 1.4183041 4287994226
31.268806 24.992502 1.4144034 4288059512
31.263237 24.98777 1.4523453 4285824359
31.264008 24.98842 1.4513534 4285956966
31.264778 24.989069 1.4503616 4286350956
31.264784 24.989077 1.4493616 4286613617
31.26479 24.989082 1.4483616 4286482284
31.26556 24.989731 1.4473698 4286745453
31.264807 24.9891 1.4453617 4286877547
31.264048 24.988461 1.4443537 4287009129
31.262524 24.987179 1.4433374 4287206508
31.260883 24.984493 1.4413123 4287140458
31.260889 24.984499 1.4403124 4287402862
31.260895 24.984505 1.4393123 4287731571
31.2609 24.98451 1.4383124 4287731317
31.260912 24.984522 1.4363124 4287599733
31.261683 24.985172 1.4353206 4287862905
31.261805 24.986582 1.4353296 4288060797
31.261814 24.986593 1.4333297 4288126081
31.262585 24.987244 1.4323378 4288059522
31.264114 24.988531 1.4323541 4288059520
31.265007 24.990591 1.4313712 4287927932
31.267305 24.992529 1.4303956 4288125312
31.266546 24.99189 1.4293875 4288256899
31.268082 24.993185 1.4284037 4288520331
31.268087 24.993191 1.4274038 4288717971
31.262564 24.988504 1.457346 4286809978
31.262575 24.988518 1.455346 4286744183
31.263346 24.989166 1.4543542 4286875769
31.264116 24.989817 1.4533623 4286810233
31.264122 24.989822 1.4523623 4286811254
31.264248 24.991238 1.4513713 4286812275
31.265778 24.992527 1.4513876 4287074679
31.266548 24.993176 1.4503957 4287468926
31.267319 24.993826 1.4494039 4287600765
31.2658 24.99255 1.4473877 4287534969
31.266571 24.9932 1.4463959 4287601270
31.265047 24.991917 1.4453797 4287403887
31.264174 24.989876 1.4433627 4287469680
31.261885 24.987949 1.4423383 4287469423
31.261131 24.987316 1.4403303 4287600241
31.262667 24.988611 1.4393466 4287797364
31.261908 24.987972 1.4383385 4287928696
31.261913 24.987978 1.4373385 4287994491
31.261919 24.987984 1.4363385 4288257663
31.263454 24.989279 1.4353548 4288652934
31.262695 24.98864 1.4343467 4288981390
31.262701 24.988646 1.4333467 4289441175
31.264236 24.989941 1.432363 4289835931
31.253588 24.978266 1.5142368 4290097845
31.254364 24.978922 1.5122449 4288979366
31.255249 24.980974 1.5122621 4289374126
31.260935 24.988396 1.4963374 4284901458
31.260941 24.988401 1.4953374 4285033045
31.260826 24.987 1.4943285 4285230426
31.260836 24.987011 1.4923285 4285164380
31.260077 24.986372 1.4913205 4285230176
31.261909 24.989258 1.4593468 4287271293
31.261156 24.988626 1.4573387 4287402368
31.261162 24.988632 1.4563388 4287336833
31.262691 24.98992 1.456355 4287139968
31.263462 24.99057 1.4553632 4287271552
31.264353 24.99263 1.4543803 4287468929
31.265123 24.993279 1.4533883 4287206017
31.266014 24.995338 1.4524055 4287600778
31.268314 24.997276 1.4514298 4287732102
31.269199 24.999331 1.451447 4287994756
31.2715 25.001268 1.4504714 4288192136
31.27227 25.001919 1.4494796 4288126345
31.271511 25.00128 1.4484714 4288323476
31.269993 25.000004 1.4464552 4288717985
31.268349 24.997313 1.44543 4289638580
31.266066 24.995392 1.4434057 4289901501
31.264425 24.992706 1.4413806 4290295745
31.253691 24.979656 1.5172457 4288124057
31.254461 24.980307 1.5162538 4287597711
31.254467 24.980312 1.5152539 4286347644
31.254473 24.980318 1.5142539 4285623921
31.254484 24.980331 1.512254 4285755509
31.254604 24.981739 1.5122629 4285952890
31.25614 24.983034 1.5112792 4286281857
31.257025 24.985086 1.5112963 4286544776
31.257036 24.9851 1.5092963 4286807952
31.257801 24.985743 1.5093045 4286939542
31.257812 24.985756 1.5073045 4287202972
31.260107 24.987688 1.5073289 4287663782
31.260233 24.989103 1.5063379 4287795874
31.261003 24.989752 1.5053461 4287796379
31.261009 24.989758 1.5043461 4287927964
31.261015 24.989765 1.5033461 4288059548
31.261021 24.989771 1.5023462 4288388763
31.260262 24.989132 1.501338 4288586137
31.260164 24.987747 1.4973292 4288980625
31.261055 24.989805 1.4963464 4289046417
31.261061 24.989811 1.4953464 4288651660
31.261066 24.989817 1.4943464 4287730560
31.261072 24.989822 1.4933465 4286809205
31.261078 24.989828 1.4923465 4286480243
31.25956 24.988552 1.4903303 4286348658
31.259445 24.987148 1.4893214 4286282866
31.258692 24.986517 1.4873133 4286283122
31.258698 24.986523 1.4863133 4286349427
31.258703 24.986528 1.4853134 4286217328
31.257944 24.985889 1.4843053 4286414450
31.263622 24.993305 1.4693806 4287468162
31.261984 24.99062 1.4673554 4287533956
31.261259 24.990017 1.4603475 4288061064
31.261265 24.990023 1.4593476 4288455567
31.262035 24.990673 1.4583558 4288718228
31.261282 24.99004 1.4563477 4288981658
31.262167 24.992094 1.4563648 4289113758
31.263702 24.993387 1.455381 4289574307
31.265238 24.994682 1.4543973 4289508512
31.266888 24.997379 1.4544225 4288127119
31.268543 25.000084 1.4534478 4287206020
31.270958 25.003426 1.4534811 4287403137
31.274023 25.006008 1.4525136 4287534205
31.275681 25.008711 1.4515388 4287271034
31.27721 25.009998 1.4515551 4287007864
31.278101 25.012058 1.4505723 4287270788
31.276461 25.009373 1.4485471 4290560189
31.256205 24.984385 1.5212878 4286084995
31.255451 24.983751 1.5192797 4287203474
31.254698 24.98312 1.5172718 4286808714
31.254704 24.983126 1.5162717 4286150783
31.254709 24.983131 1.5152718 4286282880
31.254713 24.983137 1.5142719 4285954170
31.255484 24.983788 1.5132799 4285756789
31.255489 24.983793 1.51228 4285757043
31.256376 24.985846 1.512297 4285822835
31.257912 24.987141 1.5113133 4285888627
31.258682 24.987791 1.5103215 4286283385
31.259451 24.988441 1.5093297 4286875522
31.259579 24.989855 1.5083387 4287401866
31.259462 24.988453 1.5073297 4287994003
31.25959 24.989868 1.5063387 4288322973
31.260361 24.990517 1.5053469 4288125600
31.260366 24.990522 1.504347 4288191647
31.259607 24.989885 1.5033388 4288323231
31.259611 24.989891 1.5023389 4288454559
31.258858 24.989258 1.5003308 4288191130
31.258863 24.989264 1.4993309 4287665040
31.258869 24.989269 1.4983308 4287467916
31.258875 24.989277 1.4973309 4287467657
31.261169 24.991209 1.4973552 4287270277
31.26194 24.991859 1.4963634 4286480760
31.261951 24.991871 1.4943635 4285954415
31.262072 24.99328 1.4943725 4285757035
31.261963 24.991882 1.4923636 4285625704
31.261204 24.991243 1.4913555 4285691496
31.26045 24.990612 1.4893475 4285757288
31.258926 24.989328 1.4883312 4285822568
31.258932 24.989334 1.4873313 4286085483
31.258938 24.98934 1.4863313 4286217071
31.258949 24.989353 1.4843314 4286282866
31.258955 24.989359 1.4833314 4286480248
31.259726 24.990009 1.4823395 4286874754
31.261473 24.992805 1.4653653 4289571774
31.270184 25.002769 1.4554729 4290165169
31.272604 25.006117 1.4545063 4286811003
31.275019 25.009459 1.4545397 4285626973
31.257957 24.988474 1.5243219 4289572025
31.257963 24.98848 1.523322 4289637817
31.255583 24.985172 1.5172888 4288058780
31.255589 24.985178 1.5162889 4285690743
31.255714 24.986593 1.5152979 4284835689
31.256485 24.987244 1.5143059 4285033066
31.257256 24.987894 1.5133141 4285033320
31.258026 24.988544 1.5123223 4285362284
31.258146 24.989952 1.5123312 4285493869
31.258917 24.990602 1.5113394 4285559662
31.259687 24.991253 1.5103476 4285691248
31.260458 24.991903 1.5093558 4285757041
31.260464 24.991909 1.5083557 4285888627
31.261234 24.992559 1.5073639 4285822839
31.260475 24.99192 1.5063559 4286151810
31.259722 24.991287 1.5043478 4286020478
31.258963 24.99065 1.5033396 4285954683
31.258968 24.990656 1.5023397 4286217597
31.258974 24.990662 1.5013398 4286217340
31.258986 24.990673 1.4993398 4286020215
31.258991 24.990679 1.4983399 4285888884
31.258997 24.990685 1.4973398 4285822832
31.260647 24.993383 1.4973651 4285822831
31.262182 24.994677 1.4963814 4285822830
31.262953 24.995327 1.4953896 4285888622
31.258959 24.99193 1.5253479 4287138450
31.258205 24.991297 1.5233399 4289441203
31.255812 24.98798 1.5193067 4290297023
31.255823 24.987991 1.5173068 4288060059
31.254299 24.986708 1.5162905 4286875527
31.25507 24.987358 1.5152987 4287796372
31.256605 24.988653 1.514315 4288717474
31.25749 24.990705 1.5143321 4288980646
31.259026 24.992001 1.5133483 4289375660
31.259912 24.994053 1.5133654 4289573296
31.261446 24.995348 1.5123817 4289310125
31.261452 24.995354 1.5113817 4288323231
31.261457 24.995359 1.5103818 4287335824
31.262228 24.99601 1.5093899 4286743688
31.261475 24.995377 1.5073818 4286348932
31.259951 24.994095 1.5063657 4286086018
31.259842 24.992697 1.5043567 4286151812
31.259083 24.99206 1.5033487 4286086020
31.259089 24.992065 1.5023487 4286414729
31.259094 24.992071 1.5013487 4286809232
31.2591 24.992077 1.5003488 4287072660
31.259871 24.992727 1.4993569 4287401882
31.259996 24.994141 1.4983659 4287730586
31.260767 24.994791 1.4973741 4287993755
31.262417 24.997488 1.4973993 4288980388
31.264717 24.999428 1.4964237 4289309347
31.259073 24.993332 1.5263568 4285230200
31.259079 24.993338 1.5253569 4285033074
31.259085 24.993345 1.524357 4287598999
31.257566 24.992067 1.5223408 4288191136
31.255928 24.989382 1.5203156 4288388772
31.255169 24.988743 1.5193075 4288454819
31.253651 24.987467 1.5172913 4289310126
31.255196 24.988773 1.5143077 4290625471
31.257612 24.992115 1.514341 4290033334
31.259262 24.994812 1.5143663 4289507246
31.260798 24.996107 1.5133826 4289046952
31.262447 24.998804 1.5134077 4288783781
31.263218 24.999454 1.5124159 4287994266
31.2617 24.998177 1.5103997 4287138445
31.26247 24.998827 1.5094079 4287006860
31.262476 24.998833 1.5084078 4287072655
31.261597 24.996786 1.5073909 4287665050
31.260077 24.99551 1.5053747 4288454567
31.260082 24.995516 1.5043746 4289178291
31.259329 24.994883 1.5023667 4289901758
31.258417 24.994085 1.5283576 4285428335
31.258543 24.995501 1.5273666 4285428338
31.258549 24.995506 1.5263667 4284770411
31.258554 24.995512 1.5253667 4285559672
31.257795 24.994875 1.5243586 4286086017
31.256922 24.992832 1.5223416 4286283140
31.255283 24.990147 1.5203165 4286085761
31.253765 24.988871 1.5183003 4288191137
31.252253 24.9876 1.5152842 4290230718
31.253017 24.988243 1.5152923 4289441712
31.253023 24.988249 1.5142922 4288323228
31.256203 24.992235 1.5143337 4288125846
31.256233 24.993551 1.5303422 4283323228
31.257002 24.9942 1.5293503 4283191636
31.25713 24.995615 1.5283593 4283388752
31.2579 24.996265 1.5273675 4284178271
31.257906 24.996271 1.5263675 4284770411
31.25703 24.99423 1.5243505 4285230707
31.255507 24.992947 1.5233343 4285757052
31.253988 24.991671 1.5213181 4284835694
31.25235 24.988985 1.519293 4286546312
31.250832 24.987709 1.5172768 4289441204
31.249964 24.985672 1.5142598 4290297021
31.254824 24.993671 1.5303349 4283192138
31.254835 24.993683 1.528335 4282862915
31.2556 24.994328 1.5283431 4283520587
31.255726 24.995743 1.5273521 4284243804
31.255732 24.995749 1.5263522 4285033072
31.255623 24.99435 1.5243433 4285690490
31.254105 24.993074 1.5223271 4284900717
31.252459 24.990383 1.5213019 4287203214
31.252655 24.993153 1.5293195 4283389517
31.253426 24.993803 1.5283277 4283060294
31.254196 24.994453 1.5273359 4284310103
31.254967 24.995104 1.5263441 4285822836
31.254972 24.99511 1.525344 4286743690
31.254978 24.995115 1.5243441 4285624697
31.252695 24.993195 1.5223198 4285690233
31.25201 24.993917 1.5293204 4284835689
31.252016 24.993923 1.5283204 4288190620
31.254454 24.99729 1.5243539 4285886846
