# .PCD v0.7 - Point Cloud Data file format
VERSION 0.7
FIELDS x y z rgba
SIZE 4 4 4 4
TYPE F F F U
COUNT 1 1 1 1
WIDTH 509
HEIGHT 1
VIEWPOINT 0 0 0 1 0 0 0
POINTS 509
DATA ascii
31.471127 24.587919 1.1551617 4282532131
31.469717 24.588039 1.1551545 4282334751
31.469723 24.588045 1.1541545 4282268957
31.458128 24.584824 1.1470697 4281808669
31.456718 24.584946 1.1470624 4281874463
31.478315 24.590034 1.1722156 4281875501
31.481266 24.591213 1.1702391 4282007087
31.480507 24.590574 1.1692311 4282007087
31.479097 24.590696 1.1692238 4282007087
31.476929 24.590178 1.1682084 4282072880
31.47617 24.589539 1.1672003 4281941551
31.47839 24.590111 1.1592159 4282532911
31.478395 24.590117 1.158216 4283058998
31.475576 24.590357 1.1582015 4283321912
31.532631 24.604372 1.1996084 4281546016
31.531872 24.603735 1.1986003 4281546016
31.527523 24.602688 1.1985695 4281677602
31.521767 24.601761 1.1985315 4281809188
31.515245 24.600189 1.1984853 4281940774
31.505779 24.597446 1.1994156 4281874981
31.494915 24.594833 1.1983386 4282006569
31.492746 24.594316 1.1973233 4282072362
31.493517 24.594967 1.1963314 4282072362
31.495697 24.595495 1.1953468 4282138155
31.508774 24.598673 1.1894394 4282532144
31.513134 24.599731 1.1874703 4282532143
31.517492 24.60079 1.1855011 4282466350
31.50449 24.597691 1.178409 4282730814
31.495029 24.594952 1.1783394 4281810228
31.488506 24.59338 1.1782931 4281678899
31.486334 24.592857 1.1782777 4281481519
31.484165 24.59234 1.1772624 4281218346
31.480581 24.591936 1.1772398 4281086503
31.479822 24.591299 1.1762316 4281086246
31.480598 24.591955 1.1742399 4280823588
31.491526 24.594631 1.1643171 4280362521
31.490767 24.593992 1.163309 4280559641
31.488598 24.593475 1.1622937 4280493846
31.485014 24.593073 1.162271 4280428053
31.482841 24.592548 1.1622556 4280493846
31.515114 24.600056 1.2214845 4281480225
31.520239 24.601757 1.2195235 4281480225
31.526772 24.60334 1.2175697 4281480225
31.533304 24.604923 1.215616 4281546018
31.539837 24.606504 1.2136623 4281611810
31.54637 24.608088 1.2117084 4281611809
31.54932 24.609266 1.2097321 4281677602
31.5515 24.609797 1.2087475 4281611809
31.552914 24.609682 1.2077547 4281611809
31.552925 24.609694 1.2057549 4281677602
31.552931 24.609699 1.2047548 4281677602
31.551529 24.609825 1.2037476 4281743395
31.549355 24.609303 1.2037323 4281809188
31.547186 24.608786 1.2027169 4281809188
31.545017 24.608267 1.2017015 4281809188
31.542845 24.607744 1.2016861 4281677601
31.542086 24.607105 1.2006781 4281677602
31.542091 24.607111 1.1996781 4281677602
31.540688 24.607237 1.1986709 4281743395
31.539928 24.6066 1.1976627 4281809188
31.53776 24.606081 1.1966474 4281874981
31.534176 24.605679 1.1966248 4281940774
31.531244 24.604517 1.1956012 4282006567
31.523314 24.603067 1.1955478 4282072360
31.513847 24.600323 1.1964781 4282006568
31.508091 24.599396 1.19644 4282006569
31.505152 24.598228 1.1964165 4282072362
31.502983 24.597712 1.1954012 4282138155
31.502989 24.597717 1.1944011 4282203948
31.505169 24.598246 1.1934166 4282335534
31.510292 24.599949 1.1914556 4282598194
31.526958 24.603535 1.1845708 4282861108
31.529903 24.604708 1.1835943 4282861108
31.534262 24.605766 1.1816252 4282795315
31.53862 24.606825 1.179656 4282663986
31.536453 24.606308 1.1786407 4282467120
31.535694 24.605669 1.1776327 4282401585
31.53352 24.605146 1.1776173 4282401843
31.531351 24.60463 1.1766019 4282599223
31.527769 24.604225 1.1765792 4282665017
31.521257 24.602667 1.1745331 4281875505
31.510389 24.600048 1.1744561 4280954919
31.486477 24.59429 1.1742868 4280559902
31.48789 24.594175 1.1732942 4280362780
31.493015 24.595879 1.1713331 4280231451
31.51305 24.600929 1.2234781 4281611809
31.516638 24.601337 1.2225007 4281611809
31.520998 24.602396 1.2205316 4281611809
31.527531 24.603979 1.2185779 4281546016
31.531889 24.605038 1.2166086 4281546016
31.537779 24.607386 1.2146558 4281546016
31.542137 24.608444 1.2126867 4281546016
31.547905 24.609383 1.2107247 4281611809
31.550085 24.609911 1.2097402 4281611809
31.550856 24.610561 1.2087483 4281677601
31.552271 24.610447 1.2077557 4281677601
31.552282 24.610458 1.2057557 4281677601
31.552288 24.610464 1.2047558 4281743394
31.552294 24.61047 1.2037557 4281743394
31.55089 24.610598 1.2027485 4281809187
31.550131 24.609959 1.2017404 4281809187
31.548721 24.610079 1.2017331 4281809187
31.547962 24.60944 1.2007251 4281809187
31.546558 24.609568 1.1997179 4281809187
31.546564 24.609573 1.1987178 4281809187
31.545805 24.608934 1.1977098 4281874980
31.544401 24.609062 1.1967026 4281874980
31.544407 24.609068 1.1957026 4281874981
31.54224 24.608549 1.1946872 4281874981
31.539301 24.607382 1.1946636 4281874981
31.537132 24.606865 1.1936483 4282006567
31.530611 24.605293 1.1936022 4282072360
31.52268 24.603844 1.1935487 4282269739
31.517569 24.602152 1.1935098 4282401325
31.513985 24.601749 1.1934872 4282467118
31.51399 24.601755 1.1924872 4282598704
31.516176 24.602291 1.1905026 4282861876
31.519764 24.602699 1.1895254 4282993464
31.524889 24.604403 1.1875643 4283059003
31.529247 24.605461 1.1855952 4282993211
31.537195 24.606928 1.1826487 4282927419
31.540138 24.608103 1.1816722 4282730298
31.542324 24.608637 1.1796877 4282401847
31.545919 24.609053 1.1777104 4282138420
31.548098 24.609581 1.1767259 4281941042
31.546694 24.609709 1.1757187 4281677871
31.5467 24.609715 1.1747186 4281349420
31.544533 24.609196 1.1737033 4281283885
31.543129 24.609324 1.1726961 4281218349
31.541599 24.608034 1.1726798 4281086763
31.54096 24.608805 1.1716807 4280955177
31.538027 24.607643 1.1706573 4280626469
31.536619 24.607763 1.17065 4280429090
31.545528 24.610083 1.1327128 4283650350
31.546299 24.610731 1.1317209 4283255333
31.529026 24.605232 1.2245939 4281809188
31.524685 24.604191 1.2235631 4281743395
31.520336 24.603144 1.2235323 4281743394
31.521107 24.603794 1.2225405 4281677602
31.523293 24.604328 1.2205559 4281677602
31.527645 24.605381 1.2195867 4281611809
31.534178 24.606964 1.217633 4281546016
31.539303 24.608667 1.215672 4281546016
31.542896 24.609081 1.2136947 4281546016
31.545841 24.610256 1.2127182 4281546016
31.549435 24.61067 1.2107409 4281546016
31.550205 24.61132 1.2097491 4281546016
31.55162 24.611206 1.2087564 4281743394
31.551626 24.611212 1.2077565 4281743394
31.551638 24.611223 1.2057565 4281743394
31.551643 24.611229 1.2047566 4281743394
31.552414 24.611879 1.2037647 4281743394
31.551655 24.61124 1.2027566 4281743394
31.551661 24.611246 1.2017567 4281743394
31.550257 24.611374 1.2007494 4281743394
31.550262 24.61138 1.1997495 4281809187
31.550268 24.611385 1.1987495 4281809187
31.550274 24.611391 1.1977495 4281809187
31.549515 24.610752 1.1967415 4281809187
31.54952 24.610758 1.1957415 4281874980
31.549526 24.610764 1.1947415 4282072360
31.549532 24.610771 1.1937416 4282203946
31.547363 24.610252 1.1927263 4282269739
31.545195 24.609735 1.1917108 4282532911
31.54302 24.609211 1.1916955 4282598704
31.537264 24.608284 1.1916574 4282796083
31.532923 24.607244 1.1906266 4282927669
31.528574 24.606197 1.1905959 4282927669
31.527815 24.605558 1.1895877 4282927669
31.529995 24.606087 1.1886032 4282993462
31.532946 24.607267 1.1866268 4282993464
31.537304 24.608326 1.1846576 4282598452
31.541662 24.609385 1.1826885 4282269488
31.546022 24.610443 1.1807193 4282006317
31.548967 24.611618 1.1797428 4281677610
31.552561 24.612032 1.1777656 4281414952
31.554747 24.612568 1.175781 4281348904
31.555517 24.613218 1.1747892 4281217319
31.556931 24.613102 1.1737965 4281019941
31.556936 24.61311 1.1727965 4280823076
31.555532 24.613235 1.1717893 4280560162
31.554773 24.612597 1.1707813 4280428833
31.554779 24.612602 1.1697812 4280494626
31.553377 24.61273 1.168774 4280494626
31.551208 24.612211 1.1677587 4280231711
31.550444 24.611567 1.1677505 4280165918
31.55122 24.612223 1.1657587 4280166691
31.56008 24.614489 1.1368213 4279901193
31.556496 24.614084 1.1367986 4280295692
31.540022 24.609264 1.2236798 4281874978
31.535673 24.608217 1.223649 4281809187
31.532097 24.607821 1.2226264 4281677602
31.529158 24.606653 1.2226028 4281611809
31.529163 24.606659 1.2216029 4281546016
31.52994 24.607315 1.2196112 4281611809
31.533529 24.607723 1.2186338 4281611809
31.537888 24.608782 1.2166647 4281546016
31.543011 24.610485 1.2147037 4281546016
31.545191 24.611015 1.2137191 4281546015
31.547377 24.611549 1.2117345 4281480222
31.549555 24.61208 1.21075 4281480222
31.55097 24.611965 1.2097572 4281480222
31.551746 24.612621 1.2077655 4281677601
31.551752 24.612627 1.2067655 4281677601
31.551758 24.612633 1.2057655 4281743394
31.551764 24.612638 1.2047656 4281743394
31.551769 24.612644 1.2037656 4281743394
31.551775 24.61265 1.2027656 4281743394
31.551781 24.612656 1.2017657 4281809187
31.551786 24.612661 1.2007657 4281809188
31.551792 24.612667 1.1997657 4281743395
31.551798 24.612673 1.1987658 4281809188
31.551804 24.612679 1.1977658 4281874981
31.551815 24.612692 1.1957659 4282072360
31.551821 24.612698 1.1947659 4282269739
31.553234 24.612581 1.1937732 4282467376
31.55324 24.612589 1.1927732 4282599220
31.551838 24.612715 1.191766 4282665014
31.551079 24.612076 1.1907579 4282862394
31.551085 24.612082 1.1897579 4282665015
31.547501 24.611679 1.1897353 4282467636
31.545332 24.611162 1.1887199 4282270257
31.5424 24.610001 1.1876965 4282138671
31.540991 24.610121 1.1876892 4282007086
31.540232 24.609482 1.186681 4281875501
31.542418 24.610018 1.1846966 4281481261
31.545361 24.611191 1.1837201 4281021227
31.549721 24.612249 1.1817509 4280692263
31.554079 24.613308 1.1797818 4280429092
31.558437 24.614368 1.1778126 4280297763
31.560623 24.614902 1.1758281 4280232483
31.563574 24.616083 1.1738516 4280363556
31.565752 24.616611 1.1728671 4280429092
31.565758 24.616617 1.1718671 4280297764
31.565763 24.616623 1.1708672 4280298022
31.567184 24.616514 1.1688745 4280232229
31.565775 24.616636 1.1688672 4280166436
31.565786 24.616648 1.1668673 4280166949
31.565792 24.616653 1.1658673 4280166949
31.565033 24.616014 1.1648592 4279969570
31.562859 24.615492 1.1648438 4279969057
31.562864 24.615498 1.1638439 4279903779
31.572495 24.618412 1.1339146 4280098320
31.566738 24.617485 1.1338764 4280098061
31.540087 24.610615 1.2336885 4283520319
31.542316 24.611197 1.2237042 4281874978
31.540148 24.61068 1.2226888 4281809187
31.537979 24.610161 1.2216735 4281611809
31.53722 24.609524 1.2206653 4281414430
31.535818 24.60965 1.2196581 4281414430
31.537231 24.609535 1.2186655 4281611809
31.539412 24.610065 1.2176809 4281546016
31.542362 24.611244 1.2157044 4281480223
31.54595 24.611652 1.2147272 4281414430
31.548136 24.612188 1.2127426 4281348636
31.548906 24.612839 1.2117507 4281348636
31.551085 24.613367 1.2107662 4281480222
31.55109 24.613373 1.2097663 4281546015
31.551102 24.613386 1.2077663 4281611808
31.550337 24.612741 1.2077582 4281611808
31.550348 24.612753 1.2057582 4281677601
31.551119 24.613403 1.2047664 4281743394
31.551125 24.613409 1.2037665 4281743394
31.55254 24.613295 1.2027737 4281809187
31.552546 24.6133 1.2017738 4281874980
31.552551 24.613306 1.2007738 4281874981
31.553328 24.613962 1.198782 4282072360
31.553333 24.613968 1.197782 4282269739
31.553339 24.613974 1.196782 4282467118
31.553345 24.613979 1.1957821 4282664497
31.55335 24.613985 1.1947821 4282730290
31.554121 24.614635 1.1937903 4282664755
31.55554 24.614527 1.1917976 4282467634
31.556311 24.615177 1.1908058 4282401842
31.555552 24.614538 1.1897976 4282336050
31.556322 24.615189 1.1888058 4281809706
31.556328 24.615194 1.1878059 4281151776
31.554159 24.614677 1.1867905 4280757018
31.551992 24.614159 1.1857752 4280757018
31.549818 24.613636 1.1857598 4280954398
31.551239 24.613527 1.1837671 4280888606
31.55201 24.614176 1.1827753 4280560159
31.555603 24.614592 1.1807979 4280494883
31.557783 24.61512 1.1798134 4280297505
31.562141 24.61618 1.1778443 4280231713
31.5665 24.617239 1.1758751 4280166177
31.56945 24.618418 1.1738987 4280100897
31.57163 24.618948 1.1729141 4280100384
31.573051 24.618839 1.1709214 4280165920
31.574585 24.620132 1.1699377 4280166178
31.574591 24.620138 1.1689378 4280034850
31.576012 24.620029 1.1669451 4280100643
31.576782 24.62068 1.1659533 4280166436
31.578197 24.620565 1.1649605 4280035363
31.578203 24.620571 1.1639606 4279969570
31.614662 24.630388 1.138224 4279835408
31.61902 24.631449 1.1362548 4279703564
31.623379 24.632507 1.1342857 4279703306
31.625565 24.633041 1.1323011 4279834634
31.628515 24.634222 1.1303247 4279703563
31.630699 24.634756 1.1283401 4279506955
31.632114 24.634642 1.1273475 4279309576
31.6343 24.635178 1.1253629 4279309576
31.634306 24.635183 1.1243629 4279440907
31.527796 24.608107 1.2356042 4283982156
31.534328 24.609688 1.2336504 4284179277
31.541677 24.611967 1.2227051 4281677597
31.541683 24.611973 1.2217051 4281546012
31.540924 24.611336 1.220697 4281414427
31.54093 24.611341 1.219697 4281282585
31.540936 24.611347 1.2186971 4281545501
31.543121 24.611883 1.2167126 4281414172
31.5453 24.612411 1.2157279 4281480222
31.547485 24.612947 1.2137434 4281414429
31.548256 24.613598 1.2127516 4281217050
31.550436 24.614126 1.211767 4281414172
31.551855 24.614017 1.2097744 4281611294
31.550447 24.614138 1.2097671 4281611551
31.550459 24.614151 1.2077671 4281677601
31.550465 24.614157 1.2067672 4281546272
31.549706 24.613518 1.205759 4281480736
31.550476 24.614168 1.2047672 4281546529
31.551245 24.614819 1.2037754 4281612322
31.55266 24.614702 1.2027828 4281941030
31.553436 24.615358 1.2007909 4282203945
31.553442 24.615364 1.199791 4282335016
31.553448 24.615372 1.1987909 4282597674
31.554863 24.615255 1.1977983 4282795566
31.554869 24.615261 1.1967983 4282861359
31.554874 24.615269 1.1957983 4282532652
31.555651 24.615923 1.1938065 4282138152
31.555656 24.615931 1.1928066 4281875238
31.557835 24.616459 1.1918219 4281743909
31.55925 24.616344 1.1908293 4281744424
31.560026 24.617001 1.1888374 4281218596
31.562206 24.617529 1.1878529 4280560927
31.562212 24.617537 1.1868529 4280035101
31.562218 24.617542 1.185853 4279903774
31.561459 24.616903 1.1848449 4279969570
31.562233 24.617559 1.1828531 4280035365
31.561474 24.61692 1.1818449 4280035367
31.562244 24.617571 1.1808531 4279969317
31.566605 24.618629 1.178884 4279969059
31.56802 24.618515 1.1778913 4280034852
31.570204 24.619051 1.1759068 4280034852
31.575329 24.620754 1.1739457 4279903266
31.579687 24.621813 1.1719766 4279903266
31.581867 24.622341 1.170992 4279837473
31.588423 24.623947 1.1650383 4279969059
31.590607 24.624483 1.1630539 4279969059
31.593557 24.625662 1.1610774 4279903266
31.595737 24.626192 1.1600928 4279969059
31.613195 24.630451 1.1482164 4279706397
31.611792 24.630577 1.1472092 4279837725
31.616152 24.631636 1.1452399 4279968540
31.621925 24.63258 1.1422781 4279836696
31.622696 24.63323 1.1412863 4279639060
31.624882 24.633766 1.1393018 4279770388
31.627831 24.634945 1.1373253 4279573009
31.627836 24.634951 1.1363254 4279836181
31.629251 24.634836 1.1353327 4279901461
31.646082 24.639877 1.1204572 4279571983
31.64097 24.638187 1.1204182 4279506704
31.542442 24.612612 1.2227132 4281546011
31.542454 24.612623 1.2207133 4281414426
31.542459 24.612629 1.2197133 4281282841
31.542465 24.612635 1.2187133 4281348378
31.543236 24.613285 1.2177215 4281282329
31.544651 24.613171 1.2167288 4281151000
31.546835 24.613707 1.2147442 4281282843
31.547606 24.614357 1.2137524 4281282843
31.549021 24.614241 1.2127597 4281217050
31.549791 24.614891 1.2117679 4281414172
31.550568 24.615547 1.209776 4281611294
31.549803 24.614902 1.2097679 4281743137
31.549814 24.614916 1.207768 4281677601
31.550585 24.615564 1.2067761 4281612065
31.550591 24.615572 1.2057762 4281743908
31.552004 24.615456 1.2047834 4282007080
31.55201 24.615461 1.2037835 4282204459
31.552786 24.616117 1.2017916 4282467374
31.554201 24.616003 1.200799 4282532910
31.554972 24.616653 1.1998072 4282598188
31.556387 24.616539 1.1988145 4282663467
31.556393 24.616545 1.1978145 4282663980
31.556404 24.616556 1.1958146 4282532394
31.557175 24.617207 1.1948227 4282137894
31.558588 24.617092 1.19383 4281611808
31.558594 24.617098 1.1928301 4281217308
31.56078 24.617632 1.1908455 4281085979
31.56296 24.618162 1.1898609 4281086494
31.563736 24.618818 1.1878691 4280823838
31.567324 24.619226 1.1868918 4280363548
31.5681 24.619883 1.1849 4280035101
31.568871 24.620533 1.1839082 4280035360
31.570286 24.620419 1.1829154 4279969570
31.57247 24.620955 1.180931 4279969572
31.57465 24.621483 1.1799463 4279969574
31.575426 24.622139 1.1779546 4279903524
31.579014 24.622547 1.1769773 4279771680
31.581964 24.623728 1.1750008 4279837473
31.58415 24.624262 1.1730163 4279837473
31.597992 24.628084 1.1671169 4279903266
31.542574 24.614033 1.2207222 4281217566
31.543989 24.613918 1.2197295 4280954395
31.543995 24.613924 1.2187296 4281216283
31.544765 24.614574 1.2177377 4281544221
31.544771 24.61458 1.2167377 4281412635
31.546192 24.614471 1.214745 4281610014
31.547726 24.615765 1.2137613 4281544478
31.547731 24.61577 1.2127614 4281479198
31.549147 24.615656 1.2117687 4281544990
31.549923 24.616312 1.2097769 4281808161
31.549929 24.616318 1.208777 4282137383
31.549934 24.616323 1.2077769 4282400555
31.55135 24.616209 1.2067842 4282335275
31.551355 24.616215 1.2057843 4282401325
31.552126 24.616865 1.2047925 4282533168
31.553545 24.616756 1.2027998 4282533425
31.554316 24.617407 1.201808 4282401839
31.555731 24.617292 1.2008152 4282138666
31.556501 24.617941 1.1998234 4282006822
31.557922 24.617832 1.1978308 4281743392
31.558693 24.618483 1.1968389 4281612064
31.558699 24.618488 1.1958389 4281546529
31.558704 24.618494 1.194839 4281414943
31.560888 24.61903 1.1928544 4281151771
31.562304 24.618916 1.1918617 4280954649
31.564489 24.619452 1.1898772 4280954906
31.567432 24.620625 1.1889007 4280955165
31.570383 24.621803 1.1869243 4280692252
31.573977 24.622219 1.184947 4280297755
31.576921 24.623392 1.1839706 4280231966
31.578342 24.623283 1.1819779 4280231969
31.581285 24.624456 1.1810014 4280034850
31.583471 24.624992 1.1790169 4280034852
31.587065 24.625406 1.1770396 4280034854
31.59001 24.626581 1.1760632 4279903266
31.59296 24.62776 1.1740868 4279771678
31.544121 24.615339 1.2177386 4281544221
31.544127 24.615345 1.2167386 4281412635
31.546312 24.615879 1.2147541 4281675807
31.547083 24.616529 1.2137622 4281807650
31.547089 24.616535 1.2127622 4281808163
31.548502 24.616421 1.2117696 4281939748
31.548508 24.616426 1.2107695 4282268712
31.548519 24.616438 1.2087697 4282663727
31.54929 24.617088 1.2077779 4282861106
31.550705 24.616974 1.2067851 4282664240
31.551476 24.617624 1.2057933 4282401325
31.552896 24.617516 1.2038006 4282204203
31.555075 24.618044 1.202816 4282007081
31.555845 24.618694 1.2018242 4281743909
31.558031 24.61923 1.1998396 4281546529
31.560211 24.619761 1.198855 4281480478
31.56163 24.61965 1.1968625 4281348634
31.562401 24.6203 1.1958705 4281151513
31.562407 24.620306 1.1948706 4281151771
31.563177 24.620956 1.1938788 4281151771
31.564598 24.620848 1.1918861 4281085978
31.565369 24.621498 1.1908942 4280954649
31.568956 24.621906 1.189917 4280954906
31.571907 24.623087 1.1879405 4281020958
31.576265 24.624146 1.1859714 4280823838
31.546438 24.617294 1.2137631 4282267688
31.546444 24.6173 1.2127631 4282465323
31.547859 24.617186 1.2117704 4282662959
31.547865 24.617191 1.2107705 4282729265
31.548641 24.617847 1.2087786 4282795315
31.550055 24.617733 1.207786 4282532143
31.550825 24.618383 1.206794 4282137641
31.55224 24.618269 1.2058014 4281677602
31.554426 24.618803 1.2038169 4281414687
31.556604 24.619333 1.2028322 4281283358
31.55879 24.619869 1.2008477 4281283358
31.560326 24.621162 1.199864 4281283358
31.563919 24.621578 1.1978867 4281218079
31.566099 24.622107 1.1969022 4281021215
31.566875 24.622763 1.1949103 4280889628
31.566881 24.622768 1.1939104 4280823834
31.569061 24.623299 1.1929258 4280823834
31.571245 24.623833 1.1909412 4280823834
31.577013 24.624771 1.1889794 4280758042
31.581373 24.62583 1.1870102 4280758043
31.587261 24.628178 1.1850573 4280889631
31.545805 24.618071 1.211764 4282794545
31.54722 24.617956 1.2107713 4282531886
31.547997 24.618612 1.2087795 4282137385
31.549412 24.618498 1.2077868 4281874213
31.55159 24.619028 1.2068022 4281545504
31.553776 24.619562 1.2048177 4281151258
31.555956 24.620092 1.2038331 4280954136
31.558905 24.621271 1.2018566 4281020186
31.561085 24.621801 1.2008721 4281085979
31.565443 24.62286 1.198903 4281085979
31.567629 24.623396 1.1969184 4280954907
31.569809 24.623924 1.1959338 4280758043
31.572758 24.625105 1.1939574 4280758042
31.545166 24.618843 1.2107649 4281808936
31.547352 24.619377 1.2087803 4281414691
31.549532 24.619907 1.2077957 4281349155
31.551716 24.620441 1.2058113 4281283362
31.554661 24.621616 1.2048347 4281085983
31.558256 24.62203 1.2028575 4280954396
31.562614 24.623089 1.2008883 4280954395
31.565559 24.624264 1.1999118 4280954395
31.572092 24.625845 1.1979581 4280823322
31.571442 24.626604 1.198959 4280888602
31.578745 24.628838 1.1960133 4280823322
