# .PCD v0.7 - Point Cloud Data file format
VERSION 0.7
FIELDS x y z rgba
SIZE 4 4 4 4
TYPE F F F U
COUNT 1 1 1 1
WIDTH 748
HEIGHT 1
VIEWPOINT 0 0 0 1 0 0 0
POINTS 748
DATA ascii
31.170433 25.023642 1.1900218 4285227852
31.172094 25.02635 1.1880471 4287531122
31.172106 25.026361 1.1860472 4287991155
31.172997 25.028421 1.1850643 4290491290
31.171352 25.02573 1.1840391 4289438603
31.16811 25.021679 1.1949973 4283519800
31.168116 25.021685 1.1939973 4283124525
31.169897 25.025803 1.1920315 4283453489
31.1667 25.021799 1.19499 4283454007
31.168362 25.024509 1.1930153 4283387697
31.167477 25.022455 1.1929982 4284111419
31.165833 25.019764 1.191973 4285229642
31.165838 25.01977 1.190973 4285229642
31.166729 25.02183 1.1899902 4287071846
31.167625 25.023893 1.1880074 4284111161
31.162745 25.017159 1.1969404 4283324481
31.1644 25.019861 1.1959656 4283587138
31.165176 25.020517 1.1939738 4283586621
31.163647 25.019228 1.1939576 4283915328
31.166073 25.022583 1.191991 4284046913
31.165194 25.020535 1.1909739 4284309316
31.166084 25.022594 1.189991 4284506182
31.168633 25.027357 1.1880333 4284506177
31.166986 25.024664 1.1870081 4284309050
31.168644 25.027369 1.1860335 4283980600
31.167768 25.025328 1.1840165 4284113215
31.165998 25.021221 1.1839823 4284179524
31.164474 25.019938 1.182966 4284836687
31.162708 25.015837 1.1819319 4285755996
31.163002 25.019993 1.1939584 4283652156
31.163773 25.020643 1.1929666 4283520569
31.166201 25.023996 1.191 4283914558
31.165442 25.023359 1.1899918 4284571975
31.168753 25.028765 1.1880424 4284769349
31.171179 25.03212 1.1860758 4284966980
31.167999 25.028133 1.1860343 4285296460
31.168776 25.02879 1.1840425 4285560402
31.168781 25.028795 1.1830425 4285758040
31.166273 25.024075 1.1780005 4288517504
31.16799 25.029408 1.2090425 4283390774
31.167995 25.029413 1.2080425 4284640588
31.171547 25.036352 1.1851027 4285757013
31.172318 25.037003 1.1841109 4285362513
31.171436 25.034954 1.1830938 4284902220
31.169214 25.040649 1.433123 4286418009
31.16922 25.040657 1.4321231 4285694284
31.175074 25.050819 1.4292159 4289968227
31.170307 25.045486 1.4391578 4288455307
31.167807 25.040771 1.4331157 4286089044
31.168575 25.041422 1.4321239 4285891663
31.168777 25.044197 1.4391416 4287471228
31.167156 25.041531 1.4341166 4286285406
31.167927 25.042179 1.4331247 4285891158
31.167933 25.042187 1.4321247 4285759826
31.168823 25.044245 1.4311419 4285823818
31.16889 25.044466 1.2841387 4283127358
31.169783 25.046524 1.2831558 4282666548
31.173853 25.052568 1.2822144 4282732592
31.176521 25.058741 1.2802657 4282403622
31.176405 25.057337 1.2792567 4284442945
31.168127 25.044956 1.4401424 4288523155
31.167368 25.044319 1.4391344 4287405435
31.167253 25.042915 1.4381254 4287338096
31.1665 25.042282 1.4361173 4287205220
31.166506 25.04229 1.4351174 4286482269
31.166512 25.042295 1.4341174 4286153820
31.167282 25.042946 1.4331255 4285693779
31.167408 25.044359 1.4321345 4285365068
31.168938 25.045649 1.4321508 4286152783
31.170715 25.049761 1.431185 4287729502
31.172365 25.052458 1.4312102 4288059755
31.179188 25.064913 1.278317 4285889873
31.166719 25.045078 1.4401351 4288061575
31.166725 25.045084 1.4391352 4287339373
31.16585 25.043041 1.4371182 4287075432
31.165855 25.043047 1.4361181 4286614112
31.165861 25.043055 1.4351182 4286218846
31.166632 25.043703 1.4341264 4286021214
31.166637 25.043709 1.4331264 4285757272
31.167522 25.045763 1.4331435 4286479968
31.16918 25.048466 1.4321687 4287860350
31.166826 25.04534 1.2861322 4283787340
31.166834 25.04648 1.4411441 4289046948
31.166075 25.045843 1.440136 4287666817
31.16596 25.044439 1.4391271 4286878822
31.165207 25.043806 1.437119 4286746467
31.165213 25.043812 1.4361191 4286548319
31.165983 25.044462 1.4351271 4286218846
31.166103 25.045872 1.4351362 4286021214
31.166115 25.045883 1.4331362 4286283616
31.167765 25.04858 1.4331614 4287598449
31.16448 25.043354 1.2951075 4283587639
31.166304 25.048649 1.4421538 4289243550
31.16531 25.045198 1.4401278 4287534967
31.164557 25.044565 1.4381198 4286746211
31.164562 25.044571 1.4371198 4286548830
31.164688 25.045986 1.4361289 4286417242
31.164694 25.045992 1.4351289 4286152536
31.165459 25.046637 1.435137 4286282587
31.166349 25.048697 1.4341542 4288255360
31.168886 25.053446 1.4341965 4289043602
31.172192 25.058847 1.4332469 4288516497
31.167126 25.049501 1.2971587 4283851063
31.168901 25.053614 1.2961929 4284048444
31.165655 25.049408 1.4431547 4289439654
31.1639 25.045319 1.4401206 4287206002
31.163912 25.04533 1.4381206 4286614625
31.163918 25.045336 1.4371207 4286219865
31.164803 25.04739 1.4371377 4285825105
31.165573 25.04804 1.4361459 4286218329
31.165579 25.048046 1.435146 4287401068
31.167414 25.053503 1.4451888 4289309083
31.163361 25.047476 1.4431303 4288717452
31.163366 25.047482 1.4421303 4287863677
31.16325 25.046078 1.4411215 4287075439
31.163256 25.046083 1.4401214 4286811749
31.163267 25.046095 1.4381216 4286745180
31.163389 25.047504 1.4381305 4286349914
31.164925 25.0488 1.4371468 4286085976
31.165815 25.050858 1.4361639 4286742884
31.165941 25.052273 1.4351729 4288649603
31.164354 25.050926 1.4451563 4288585360
31.162716 25.048241 1.4431312 4288191108
31.162601 25.046837 1.4421222 4287600505
31.162607 25.046843 1.4411223 4287009646
31.162613 25.046848 1.4401222 4286416991
31.162739 25.048264 1.4391313 4286153043
31.163509 25.048914 1.4381394 4286218328
31.1644 25.050972 1.4371566 4286546527
31.166815 25.054314 1.4371899 4286940263
31.169357 25.059071 1.4362322 4287202157
31.171892 25.063822 1.4362745 4287925887
31.175314 25.070625 1.4363339 4287859846
31.164591 25.053738 1.4461743 4287996541
31.163595 25.050287 1.4441482 4287798645
31.161951 25.047596 1.443123 4287469419
31.161957 25.047602 1.4421231 4287404138
31.161203 25.046968 1.440115 4286746207
31.161974 25.047619 1.4391232 4286417243
31.162094 25.049028 1.4391321 4285825107
31.16363 25.050322 1.4381484 4286218330
31.16452 25.052382 1.4371655 4287335275
31.167057 25.057133 1.4372078 4288386687
31.171362 25.065989 1.4372844 4288977548
31.173899 25.07074 1.4373266 4289437845
31.17065 25.066683 1.4492848 4288718739
31.163826 25.053093 1.446166 4287733369
31.161423 25.049765 1.4441328 4287338094
31.161306 25.048361 1.4431239 4287403626
31.160553 25.047728 1.4411159 4286483036
31.160559 25.047733 1.4401158 4286614621
31.161329 25.048384 1.439124 4286219864
31.161449 25.049793 1.4391329 4285364556
31.162342 25.051853 1.4381502 4286481502
31.163998 25.054556 1.4371754 4288585342
31.167356 25.061295 1.4482343 4288192902
31.161657 25.052576 1.4451507 4287536243
31.160658 25.04912 1.4441247 4287009894
31.159899 25.048481 1.4431167 4286615387
31.159908 25.048492 1.4411167 4286351447
31.159149 25.047855 1.4401085 4286350936
31.15992 25.048504 1.4391167 4285956181
31.16069 25.049154 1.4381249 4286021977
31.161697 25.052618 1.438151 4286284384
31.164175 25.057308 1.448193 4288586389
31.161766 25.053974 1.4471596 4287732351
31.160892 25.051931 1.4451426 4287404657
31.160013 25.049885 1.4441255 4286944101
31.15926 25.049252 1.4421175 4286220629
31.159266 25.049257 1.4411175 4286351447
31.159271 25.049263 1.4401176 4286087764
31.159277 25.049269 1.4391176 4285758802
31.160162 25.051323 1.4391347 4286087770
31.164526 25.061523 1.4502198 4289244574
31.161118 25.054731 1.4481604 4288061313
31.160242 25.052691 1.4461434 4287535219
31.159483 25.052052 1.4451354 4287272042
31.159369 25.05065 1.4441264 4286614622
31.158615 25.050016 1.4421183 4286351447
31.158621 25.050022 1.4411184 4286021201
31.158627 25.050028 1.4401184 4286282836
31.158752 25.051443 1.4391274 4286414428
31.162117 25.058189 1.4491864 4288520851
31.159714 25.054859 1.4471532 4287732348
31.159599 25.053455 1.4461442 4287403633
31.15884 25.052816 1.4451362 4286943077
31.158844 25.052824 1.4441363 4286483036
31.158085 25.052185 1.4431281 4286154068
31.157976 25.050787 1.4411192 4286086994
31.157982 25.050793 1.4401193 4287138145
31.158867 25.052847 1.4401363 4287861874
31.160702 25.058304 1.4501792 4289113508
31.159822 25.056255 1.4491621 4287929729
31.158949 25.054214 1.4471451 4287403624
31.15819 25.053576 1.446137 4287271525
31.158195 25.053581 1.445137 4286942048
31.158201 25.053589 1.4441371 4286678881
31.158207 25.053595 1.443137 4286087005
31.158213 25.0536 1.4421371 4286349411
31.158983 25.054251 1.4411453 4287466869
31.164986 25.067137 1.4542555 4290953406
31.160933 25.06111 1.4521971 4289178276
31.159172 25.057014 1.4501629 4288455578
31.158298 25.054974 1.4481459 4287600764
31.157539 25.054335 1.4471378 4287140452
31.157545 25.05434 1.4461378 4287008353
31.157551 25.054346 1.4451379 4286744669
31.158321 25.054996 1.444146 4286349916
31.158447 25.056412 1.4431551 4286087005
31.158453 25.056417 1.4421551 4288060029
31.159344 25.058477 1.4411722 4287137904
31.165216 25.069942 1.4562733 4289376410
31.160162 25.060459 1.4531889 4288784270
31.158644 25.059183 1.4511727 4288323718
31.157764 25.057135 1.4501556 4287797373
31.156889 25.055094 1.4481386 4287534192
31.156895 25.055099 1.4471387 4287205474
31.1569 25.055105 1.4461387 4286810205
31.157671 25.055756 1.4451468 4286546778
31.157797 25.057171 1.4441558 4286480987
31.158684 25.059223 1.444173 4287862386
31.160219 25.060518 1.4431893 4290295969
31.160397 25.063272 1.4542068 4288455308
31.157873 25.058533 1.4521645 4288126340
31.157114 25.057894 1.4511565 4287863167
31.157005 25.056498 1.4491476 4287534201
31.156246 25.055859 1.4481394 4287073641
31.156252 25.055864 1.4471395 4286744923
31.156378 25.05728 1.4461485 4286678619
31.157148 25.05793 1.4451567 4286678364
31.158798 25.060627 1.4451818 4287204710
31.159689 25.062687 1.444199 4289638797
31.158861 25.061977 1.4551905 4288258692
31.157343 25.060701 1.4531744 4287863930
31.156464 25.058653 1.4521573 4287469425
31.15571 25.058022 1.4501492 4287600753
31.155596 25.056618 1.4491403 4287205481
31.155602 25.056623 1.4481403 4287007843
31.155607 25.056629 1.4471403 4286678876
31.156498 25.058689 1.4461575 4286152534
31.157383 25.060741 1.4461746 4287073638
31.159039 25.063446 1.4451998 4289177492
31.156689 25.061455 1.4551752 4288784272
31.156572 25.060051 1.4541662 4287863934
31.155813 25.059412 1.4531581 4287600758
31.155819 25.059418 1.4521581 4287403632
31.155066 25.058786 1.4501501 4287337581
31.155071 25.058792 1.4491501 4286942309
31.155077 25.058798 1.4481502 4286744671
31.155848 25.059448 1.4471583 4286086739
31.156612 25.060091 1.4471664 4286678878
31.157503 25.062151 1.4461836 4289244807
31.156797 25.062851 1.4571841 4288719504
31.155159 25.060165 1.4551588 4287996030
31.1544 25.059526 1.4541508 4287601266
31.154406 25.059532 1.4531509 4287469933
31.154295 25.058136 1.451142 4287206758
31.154423 25.059551 1.450151 4286812002
31.154428 25.059557 1.4491509 4286482526
31.154434 25.059563 1.448151 4286350176
31.155962 25.06085 1.4481672 4286612842
31.156855 25.06291 1.4471843 4288191364
31.15851 25.065613 1.4462095 4290493864
31.156267 25.06502 1.4581938 4288587669
31.155273 25.061569 1.4561678 4288127367
31.153749 25.060286 1.4551516 4287403893
31.153641 25.058889 1.4531426 4287535473
31.153646 25.058895 1.4521427 4287075175
31.153652 25.058901 1.4511428 4286680414
31.153658 25.058907 1.4501429 4286417244
31.153784 25.060322 1.4491518 4286153561
31.154554 25.060972 1.4481599 4285889625
31.154675 25.06238 1.4481689 4287204979
31.15633 25.065084 1.4471942 4288454536
31.158745 25.068426 1.4472275 4289704348
31.153858 25.061684 1.4571605 4288127368
31.152979 25.059635 1.4561435 4287667059
31.152105 25.057594 1.4541265 4287601517
31.151466 25.058365 1.4531273 4287469926
31.151472 25.058371 1.4521273 4286943582
31.152243 25.059021 1.4511355 4286745945
31.152248 25.059027 1.4501356 4286350421
31.153019 25.059677 1.4491436 4286284120
31.154789 25.063784 1.4491779 4287401330
31.15556 25.064434 1.448186 4289242520
31.155685 25.065849 1.4471951 4289571231
31.152445 25.061798 1.4581532 4289113508
31.151569 25.059757 1.4561362 4287864196
31.15081 25.059118 1.4551281 4287403887
31.150696 25.057714 1.4541192 4287009380
31.150702 25.05772 1.4531192 4287140961
31.150707 25.057728 1.4521192 4286680410
31.150833 25.059141 1.4511282 4286285394
31.151604 25.059792 1.4501364 4286284628
31.152374 25.060442 1.4491445 4286349913
31.153379 25.063904 1.4491706 4289046155
31.156681 25.0693 1.449221 4290295208
31.158337 25.072002 1.4482462 4287860613
31.150915 25.060511 1.4581369 4288325512
31.150162 25.059877 1.456129 4287667318
31.150045 25.058474 1.45512 4287140965
31.149286 25.057837 1.4541119 4287009379
31.150057 25.058485 1.45312 4286811487
31.150063 25.058493 1.4521201 4286482006
31.150188 25.059906 1.4511291 4286086989
31.151724 25.061201 1.4501454 4286744671
31.151852 25.062616 1.4491544 4286218078
31.153502 25.065313 1.4491795 4286217574
31.148632 25.058588 1.4561126 4287272560
31.148638 25.058596 1.4551127 4286943586
31.148643 25.058601 1.4541128 4286812000
31.148647 25.058607 1.4531127 4286350936
31.149418 25.059258 1.4521209 4286218834
31.150311 25.061316 1.451138 4286415954
31.151201 25.063375 1.4501551 4286152534
31.152086 25.065428 1.4501723 4284902218
31.149614 25.062027 1.4601386 4289836988
31.147867 25.057945 1.4561045 4287272041
31.147993 25.059361 1.4551135 4286943325
31.147999 25.059366 1.4541136 4286811230
31.148769 25.060015 1.4531218 4286284633
31.148895 25.06143 1.4521307 4286349914
31.149666 25.06208 1.4511389 4286284122
31.149792 25.063496 1.4501479 4285625940
31.148964 25.062786 1.4611394 4290164156
31.147326 25.060101 1.4591143 4288586921
31.147331 25.060106 1.4581143 4287600519
31.147337 25.060112 1.4571143 4287272047
31.147223 25.05871 1.4561054 4287008869
31.147348 25.060125 1.4551144 4286614360
31.147354 25.060131 1.4541144 4286416472
31.148125 25.06078 1.4531226 4286284633
31.149015 25.06284 1.4521397 4286547293
31.149141 25.064255 1.4511487 4286415708
31.146669 25.060854 1.461115 4289045159
31.14744 25.061504 1.4601232 4288323217
31.146561 25.059456 1.4591061 4287798141
31.146687 25.060871 1.4581151 4287469424
31.146692 25.060877 1.4571152 4287074913
31.145933 25.06024 1.4561071 4286811741
31.145939 25.060246 1.4551071 4286351190
31.14595 25.060257 1.4531072 4286022233
31.14748 25.061544 1.4531235 4286153825
31.148493 25.065014 1.4521495 4286088035
31.146015 25.061607 1.4631158 4287726996
31.146021 25.061613 1.4621159 4288715170
31.146791 25.062263 1.4611241 4288518815
31.146797 25.062269 1.460124 4288060045
31.145273 25.060986 1.4591079 4287271797
31.146044 25.061636 1.4581159 4287206252
31.146049 25.061642 1.457116 4286614362
31.146055 25.061647 1.4561161 4286219604
31.146059 25.061655 1.455116 4286088018
31.147717 25.064358 1.4541414 4285956440
31.148602 25.06641 1.4541584 4285956446
31.150257 25.069115 1.4531837 4285561691
31.14448 25.060312 1.4640995 4286088565
31.146135 25.063017 1.4631248 4287865738
31.145388 25.062389 1.4601167 4287208045
31.144629 25.06175 1.4591087 4286944102
31.145399 25.062401 1.4581169 4286614881
31.145405 25.062407 1.4571168 4286351453
31.145411 25.062412 1.4561169 4286022492
31.146301 25.064472 1.455134 4286220130
31.147951 25.067169 1.4551592 4286549357
31.14395 25.062481 1.4651093 4287534736
31.143835 25.061077 1.4641004 4288193941
31.144726 25.063137 1.4631175 4287405187
31.144732 25.063143 1.4621176 4287076726
31.143972 25.062504 1.4611095 4286814059
31.143978 25.06251 1.4601095 4286747494
31.143984 25.062515 1.4591095 4286680930
31.144754 25.063166 1.4581177 4286154330
31.145525 25.063816 1.4571258 4286351453
31.145531 25.063822 1.4561259 4286022492
31.145657 25.065237 1.4551349 4286483302
31.144072 25.06389 1.4651183 4290626745
31.143311 25.063251 1.4641103 4288325006
31.143316 25.063257 1.4631102 4287470714
31.143322 25.063263 1.4621103 4286747751
31.143328 25.063269 1.4611104 4286617181
31.143333 25.063274 1.4601103 4286943583
31.143339 25.06328 1.4591104 4286809948
31.14411 25.063931 1.4581186 4286415449
31.145 25.06599 1.4571357 4286284122
31.145771 25.066641 1.4561439 4286416742
31.143427 25.064655 1.4651191 4290758331
31.142668 25.064016 1.4641111 4287930248
31.142673 25.064022 1.463111 4287273335
31.142679 25.064028 1.4621111 4286681958
31.142685 25.064034 1.4611112 4286222423
31.142691 25.064039 1.4601111 4286483032
31.142696 25.064045 1.4591112 4286809948
31.143467 25.064695 1.4581194 4286349656
31.144358 25.066755 1.4571365 4286613087
31.142782 25.06542 1.46512 4288981920
31.142023 25.064781 1.4641119 4287469433
31.142029 25.064787 1.463112 4287207526
31.142035 25.064793 1.4621119 4286813027
31.14204 25.064798 1.461112 4286352992
31.142046 25.064804 1.4601121 4286483801
31.142052 25.06481 1.459112 4286022472
31.142822 25.06546 1.4581202 4286547031
31.144478 25.068165 1.4571455 4287795569
31.142248 25.067581 1.4671297 4289638826
31.142138 25.066185 1.4651208 4287929232
31.141378 25.065546 1.4641128 4287337847
31.141384 25.065552 1.4631128 4286878561
31.14139 25.065557 1.4621128 4286418269
31.141396 25.065563 1.4611129 4286089820
31.141401 25.065569 1.4601129 4286023250
31.142172 25.066219 1.4591211 4286351437
31.142298 25.067635 1.45813 4287336547
31.143188 25.069695 1.4571471 4288321913
31.141598 25.06834 1.4681306 4290230203
31.141603 25.068346 1.4671305 4288388496
31.140728 25.066305 1.4651135 4287665526
31.140734 25.066311 1.4641136 4287205222
31.140619 25.064907 1.4631047 4286811224
31.140625 25.064913 1.4621047 4286679383
31.140631 25.06492 1.4611048 4286679385
31.140757 25.066334 1.4601138 4287987542
31.141527 25.066984 1.4591219 4290150751
31.142418 25.069044 1.4581391 4289824869
31.140947 25.069099 1.4691314 4290690495
31.140953 25.069105 1.4681314 4288585378
31.140844 25.067709 1.4661225 4287664773
31.140085 25.06707 1.4651145 4287007596
31.139969 25.065666 1.4641055 4286876257
31.140097 25.067081 1.4631145 4286942810
31.140102 25.067087 1.4621146 4286284625
31.140108 25.067093 1.4611145 4286350420
31.140999 25.069153 1.4601316 4288513886
31.141769 25.069803 1.4591398 4290611302
31.140297 25.069859 1.4701322 4290362553
31.140303 25.069864 1.4691322 4288454802
31.140194 25.068466 1.4671233 4287599739
31.139435 25.067829 1.4661152 4287073128
31.139441 25.067835 1.4651153 4286744151
31.139446 25.067841 1.4641153 4287138652
31.139452 25.067846 1.4631153 4287401567
31.140223 25.068497 1.4621235 4286875223
31.140413 25.071262 1.4711411 4290361530
31.140419 25.071268 1.4701412 4288586142
31.139544 25.069225 1.4681242 4287467907
31.139549 25.069231 1.4671242 4287139188
31.139555 25.069239 1.4661242 4287138921
31.139561 25.069244 1.4651242 4287007323
31.139566 25.06925 1.4641243 4286809687
31.139572 25.069256 1.4631243 4286677844
31.139698 25.070671 1.4621333 4287335774
31.141401 25.074707 1.4741671 4289308573
31.139883 25.073429 1.4721509 4289112725
31.139004 25.071383 1.4711338 4288389251
31.139009 25.071388 1.4701339 4287271276
31.139015 25.071394 1.469134 4287139943
31.138906 25.069996 1.4671251 4286876768
31.13891 25.070004 1.466125 4286810461
31.138916 25.070009 1.4651251 4286678360
31.138922 25.070015 1.4641252 4287203164
31.13905 25.07143 1.4631342 4287399004
31.140873 25.076874 1.4751768 4288583831
31.139992 25.074827 1.4741598 4288321678
31.139118 25.072786 1.4721428 4287665279
31.138359 25.072147 1.4711347 4287139184
31.13825 25.070749 1.4691257 4286876518
31.138256 25.070755 1.4681258 4286876771
31.138262 25.070761 1.4671259 4286745182
31.138388 25.072176 1.4661349 4286678875
31.138273 25.070774 1.4651259 4286744153
31.138399 25.072187 1.4641349 4287071578
31.139284 25.074242 1.464152 4286609488
31.14094 25.076944 1.4631773 4285555515
31.141987 25.081734 1.4772118 4288059011
31.139343 25.075586 1.4751606 4288060290
31.13859 25.074953 1.4731526 4287337330
31.137709 25.072906 1.4721355 4286811750
31.1376 25.071508 1.4701266 4286877796
31.137606 25.071514 1.4691267 4287075172
31.136847 25.070877 1.4681185 4286548315
31.137617 25.071526 1.4671267 4286613594
31.137623 25.071533 1.4661268 4286612827
31.137629 25.071539 1.4651268 4287138147
31.139399 25.075645 1.465161 4287663208
31.140406 25.079107 1.4651871 4287464803
31.142826 25.082455 1.4642204 4287200346
31.140337 25.079037 1.4771866 4287466109
31.137934 25.075706 1.4751533 4287927425
31.137819 25.074303 1.4741445 4287073395
31.137825 25.074308 1.4731444 4287008365
31.137066 25.073671 1.4721364 4286811750
31.136955 25.072273 1.4701275 4286548831
31.136961 25.072279 1.4691275 4286614621
31.136202 25.071642 1.4681194 4286416729
31.136972 25.07229 1.4671276 4286482008
31.137098 25.073706 1.4661366 4286744413
31.137863 25.07435 1.4661447 4286546010
31.138922 25.079151 1.4781793 4287864197
31.138163 25.078512 1.4771712 4287732350
31.137169 25.075062 1.4751452 4286943086
31.137175 25.075068 1.4741453 4286614373
31.13718 25.075073 1.4731452 4286943847
31.136421 25.074436 1.4721372 4286680928
31.136312 25.073038 1.4701283 4286417755
31.136318 25.073044 1.4691284 4286154838
31.136324 25.07305 1.4681283 4286482523
31.13645 25.074465 1.4671373 4286678878
31.137215 25.075109 1.4671454 4288059249
31.138105 25.077169 1.4661627 4286544985
31.136621 25.077213 1.4791549 4288851095
31.136633 25.077225 1.477155 4288061576
31.136518 25.075821 1.4761461 4287206006
31.135759 25.075184 1.4751379 4286811500
31.135645 25.07378 1.474129 4286943338
31.135651 25.073786 1.473129 4286680675
31.135777 25.075201 1.472138 4286220377
31.135782 25.075207 1.4711381 4286417755
31.135029 25.074574 1.46913 4286023252
31.134914 25.073172 1.4681211 4286350937
31.136564 25.075869 1.4681463 4288126324
31.137455 25.077927 1.4671634 4288125042
31.138346 25.079987 1.4661806 4285887055
31.137737 25.082071 1.4811898 4289443229
31.135862 25.076574 1.4781468 4287929993
31.135103 25.075935 1.4771388 4287141240
31.134989 25.074533 1.4761298 4286681194
31.13435 25.075304 1.4751307 4286483556
31.134241 25.073906 1.4731218 4286614625
31.134247 25.073912 1.4721218 4286548575
31.134373 25.075327 1.4711308 4286482524
31.135138 25.075972 1.471139 4286482268
31.134384 25.075338 1.4691309 4286613598
31.13427 25.073936 1.468122 4288060534
31.13604 25.078043 1.4681561 4289573005
31.137852 25.083475 1.4821988 4289837983
31.136213 25.08079 1.4801737 4288390541
31.134455 25.076694 1.4781395 4287140477
31.133696 25.076057 1.4771315 4286614896
31.133585 25.074659 1.4751226 4286220643
31.133591 25.074665 1.4741226 4286615142
31.132832 25.074026 1.4731145 4286680418
31.133602 25.074677 1.4721227 4286614368
31.133608 25.074682 1.4711227 4286679903
31.133736 25.076097 1.4701318 4286548061
31.133739 25.076103 1.4691317 4287468907
31.133745 25.076109 1.4681318 4290165910
31.136438 25.08359 1.4831915 4289836918
31.135443 25.080139 1.4811655 4288586628
31.134569 25.078098 1.4791485 4287600242
31.133045 25.076817 1.4781322 4286877284
31.132931 25.075413 1.4771234 4286614623
31.132177 25.07478 1.4751153 4286680414
31.132183 25.074785 1.4741154 4286548570
31.132189 25.074791 1.4731153 4286679385
31.132195 25.074799 1.4721154 4287073889
31.1322 25.074804 1.4711155 4286810464
31.134735 25.079554 1.4711578 4287204199
31.135506 25.080204 1.4701658 4287400811
31.136673 25.086403 1.4842094 4289179210
31.135679 25.082952 1.4821835 4288192093
31.134035 25.080259 1.4811583 4287204975
31.13316 25.078218 1.4791412 4286744933
31.132401 25.077581 1.4781331 4286548319
31.132286 25.076178 1.4771242 4286548830
31.131533 25.075544 1.4751161 4286417242
31.131538 25.07555 1.4741162 4286745949
31.131544 25.075556 1.4731162 4286810971
31.132429 25.07761 1.4731333 4286810717
31.132441 25.077621 1.4711334 4287073636
31.134855 25.080963 1.4711667 4287927922
31.135902 25.085752 1.4852012 4288851036
31.135143 25.085114 1.4841932 4287798362
31.13415 25.081663 1.4821671 4286746193
31.133276 25.079622 1.4801501 4286417491
31.131752 25.078339 1.479134 4286483284
31.131636 25.076937 1.478125 4286549077
31.131647 25.076948 1.4761251 4286746202
31.131653 25.076954 1.4751251 4286680153
31.131659 25.07696 1.4741251 4286613849
31.131779 25.078369 1.4741341 4286745180
31.132549 25.07902 1.4731423 4286547295
31.134321 25.083126 1.4731765 4286744424
31.134367 25.084457 1.486185 4288850765
31.134373 25.084463 1.485185 4287798348
31.133499 25.082422 1.483168 4286877260
31.13274 25.081783 1.4821599 4286417228
31.131866 25.079742 1.4801428 4286549077
31.131107 25.079103 1.4791348 4286680663
31.131113 25.079109 1.4781349 4286549077
31.131002 25.077713 1.476126 4286548823
31.131008 25.077719 1.4751259 4286482774
31.131014 25.077724 1.474126 4286613849
31.132906 25.083241 1.4741691 4287139938
31.134436 25.084528 1.4741853 4285955158
31.135597 25.090721 1.4892288 4289706604
31.134604 25.087271 1.4872029 4288654184
31.132078 25.082531 1.4851607 4287404384
31.132084 25.082537 1.4841607 4286615125
31.13133 25.081905 1.4821526 4286154831
31.131216 25.080502 1.4811437 4286286417
31.130457 25.079863 1.4801356 4286549589
31.130463 25.079868 1.4791356 4286484050
31.130468 25.079874 1.4781357 4286286669
31.130474 25.079882 1.4771357 4286549070
31.13048 25.079887 1.4761357 4286877263
31.130486 25.079893 1.4751358 4287403357
31.13302 25.084642 1.4751781 4286613590
31.132298 25.085325 1.4891784 4289311832
31.132189 25.083929 1.4871695 4288390744
31.130665 25.082645 1.4861534 4287140945
31.130554 25.081249 1.4841444 4286746454
31.13056 25.081255 1.4831445 4286286160
31.130566 25.081261 1.4821445 4286286417
31.129807 25.080622 1.4811364 4286549589
31.129812 25.080627 1.4801365 4286615382
31.129818 25.080633 1.4791365 4286484050
31.130589 25.081284 1.4781446 4286484048
31.130714 25.082699 1.4771537 4287009621
31.131485 25.083349 1.4761618 4287469400
31.133137 25.086046 1.476187 4288653424
31.130768 25.084038 1.4891622 4288916349
31.129894 25.081995 1.4871452 4287864688
31.130014 25.083405 1.4871541 4286680928
31.129906 25.082008 1.4851452 4286089042
31.129147 25.081369 1.4841372 4286155085
31.129152 25.081375 1.4831372 4286286159
31.129158 25.081381 1.4821372 4286549075
31.129164 25.081387 1.4811373 4286614867
31.129169 25.081392 1.4801373 4286811988
31.129938 25.082043 1.4791454 4286943568
31.129944 25.082048 1.4781455 4287338575
31.131756 25.087482 1.4921882 4290230444
31.130882 25.08544 1.4901712 4289244560
31.129358 25.084158 1.4891549 4287995247
31.128485 25.082117 1.4871379 4286746207
31.129255 25.082767 1.4861461 4285957205
31.128376 25.080719 1.485129 4286220628
31.128382 25.080725 1.4841291 4286286671
31.128508 25.08214 1.4831381 4286549331
31.128513 25.082146 1.482138 4286614868
31.129284 25.082796 1.4811462 4286549074
31.12929 25.082802 1.4801463 4286877781
31.129295 25.082808 1.4791464 4287535705
31.132107 25.091698 1.494215 4289047960
31.129469 25.085556 1.4911638 4288916373
31.12871 25.084917 1.4901557 4287666555
31.128593 25.083513 1.4891468 4286745702
31.12784 25.082882 1.4871387 4286350435
31.127846 25.082888 1.4861388 4286415720
31.126966 25.080839 1.4851217 4286415967
31.127737 25.08149 1.4841299 4286613592
31.128628 25.083549 1.483147 4287008349
31.128633 25.083555 1.4821471 4287074141
31.128639 25.083561 1.4811471 4287074393
31.130409 25.087667 1.4811813 4287534939
31.132181 25.091774 1.4812155 4288916839
31.133072 25.093832 1.4802326 4289509223
31.127186 25.083635 1.4891396 4286350695
31.12719 25.083641 1.4881396 4285956186
31.127195 25.083647 1.4871396 4286087263
31.126316 25.081598 1.4861226 4286547306
31.126322 25.081604 1.4851226 4286744932
31.127213 25.083664 1.4841397 4287074143
31.128105 25.085724 1.4831568 4287074142
31.128868 25.086367 1.4831649 4287271520
31.128874 25.086372 1.482165 4287798116
31.126421 25.082991 1.4891315 4286087004
31.126547 25.084406 1.4881405 4286284379
31.126431 25.083002 1.4871315 4286613090
31.125671 25.082363 1.4861234 4287007594
31.126442 25.083014 1.4851316 4287204975
31.125683 25.082375 1.4841235 4287270770
31.125694 25.082388 1.4821235 4288849799
31.1257 25.082394 1.4811236 4290626463
31.127472 25.0865 1.4811578 4289770644
31.125891 25.085157 1.4901412 4285100114
31.125776 25.083755 1.4891323 4286152797
31.125902 25.085171 1.4881413 4286679137
31.125788 25.083767 1.4871323 4287073641
31.125793 25.083773 1.4861324 4287270766
31.126684 25.085833 1.4851495 4287731319
31.12504 25.083139 1.4841243 4290034076
31.12595 25.086502 1.5011498 4288115302
31.125191 25.085865 1.5001417 4290553253
31.125212 25.085888 1.4961419 4287927961
31.125982 25.086538 1.49515 4285099366
31.125988 25.086544 1.49415 4284244305
31.126116 25.087959 1.4931591 4284112967
31.125999 25.086555 1.4921501 4284442182
31.125126 25.084515 1.490133 4285297486
31.124367 25.083876 1.489125 4286218589
31.125257 25.085936 1.4881421 4286942312
31.126028 25.086584 1.4871503 4287731322
31.126148 25.087994 1.4871593 4287994244
31.127041 25.090054 1.4861764 4289244067
31.124426 25.08522 1.5001336 4289632151
31.124552 25.086636 1.4991426 4290162105
31.124557 25.086641 1.4981426 4288584101
31.125328 25.087292 1.4971508 4286413960
31.124569 25.086653 1.4961427 4284835690
31.12534 25.087303 1.4951509 4283849299
31.125345 25.087309 1.4941509 4283849547
31.125471 25.088724 1.4931599 4284507725
31.125477 25.08873 1.49216 4285231698
31.125483 25.088736 1.4911599 4286021209
31.124607 25.086695 1.4891429 4286810726
31.125378 25.087343 1.4881511 4287666035
31.125383 25.087349 1.4871511 4288455045
31.125505 25.088758 1.4871601 4288717967
31.126276 25.089409 1.4861683 4290691513
31.123781 25.085985 1.5001345 4286675299
31.123793 25.085997 1.4981345 4285624159
31.123913 25.087406 1.4981434 4284900693
31.124683 25.088057 1.4971516 4284505935
31.124689 25.088062 1.4961517 4284374345
31.124815 25.089476 1.4951607 4284703561
31.125586 25.090126 1.4941689 4285164625
31.125711 25.091541 1.4931779 4286283875
31.126476 25.092186 1.493186 4286876015
31.126482 25.092192 1.492186 4287599485
31.125729 25.091558 1.490178 4288323462
31.123137 25.08675 1.5001353 4284898888
31.123262 25.088165 1.4991443 4284176713
31.124033 25.088816 1.4981525 4284308556
31.124159 25.090229 1.4971615 4284505935
31.125046 25.092283 1.4971786 4285361240
31.125937 25.094341 1.4961957 4286743144
31.126707 25.094992 1.4952039 4287664759
31.125832 25.092951 1.4931868 4288652426
31.125959 25.094366 1.4921958 4289112724
31.122608 25.088919 1.5011451 4284111422
31.122614 25.088924 1.5001451 4283979836
31.122618 25.08893 1.4991452 4284308801
31.124275 25.091633 1.4981704 4285230161
31.12516 25.093685 1.4981875 4286348900
31.126051 25.095745 1.4972047 4287533432
31.126936 25.097799 1.4972217 4287994497
31.122849 25.091736 1.501163 4284637766
31.123613 25.092381 1.5011711 4285427282
31.123739 25.093796 1.5001801 4286348384
31.125389 25.096493 1.5002054 4287467123
31.12397 25.096601 1.502198 4285954906
31.124735 25.097246 1.5022061 4287073131
31.125626 25.099304 1.5012232 4287730805
31.126511 25.101358 1.5012404 4288322691
31.126741 25.104164 1.5032582 4288586370
31.127747 25.107626 1.5032843 4289178251
31.129396 25.110323 1.5033095 4290230688
