# .PCD v0.7 - Point Cloud Data file format
VERSION 0.7
FIELDS x y z rgba
SIZE 4 4 4 4
TYPE F F F U
COUNT 1 1 1 1
WIDTH 105
HEIGHT 1
VIEWPOINT 0 0 0 1 0 0 0
POINTS 105
DATA ascii
31.361481 25.286314 1.3956553 4286212157
31.369911 25.302555 1.406799 4285953861
31.369158 25.301922 1.4047909 4285361720
31.369164 25.301929 1.4037908 4286346564
31.369173 25.301941 1.401791 4287396943
31.369064 25.300543 1.3997821 4287066951
31.36919 25.301958 1.3987911 4285881650
31.369967 25.302614 1.3967992 4285222191
31.368328 25.299929 1.3947741 4285023026
31.369249 25.303303 1.4097997 4285427263
31.369255 25.303308 1.4087996 4285558850
31.369267 25.30332 1.4067998 4285756482
31.368513 25.302687 1.4047917 4285756478
31.368519 25.302694 1.4037918 4286543943
31.36853 25.302706 1.4017918 4286936392
31.368542 25.302717 1.3997918 4286935365
31.369432 25.304775 1.398809 4285750064
31.368679 25.304144 1.3968009 4285287984
31.370979 25.306082 1.3958253 4284891440
31.369461 25.304806 1.3938092 4284694316
31.363878 25.298775 1.4127427 4287994196
31.36554 25.301485 1.410768 4287138376
31.367075 25.302778 1.4097842 4285888055
31.367207 25.304199 1.4077933 4285690165
31.367092 25.302797 1.4067843 4285689904
31.367104 25.302809 1.4047844 4285690155
31.367229 25.304224 1.4037935 4285886258
31.367241 25.304235 1.4017935 4286740033
31.368011 25.304886 1.4008017 4286872133
31.368908 25.30695 1.3988189 4285819703
31.368034 25.304909 1.3968018 4285622074
31.368805 25.305559 1.3958099 4285227067
31.369701 25.307623 1.3938271 4284832050
31.368942 25.306986 1.392819 4285160756
31.363373 25.300966 1.4097526 4288190810
31.364147 25.301622 1.4077609 4287334990
31.364153 25.301628 1.4067608 4286413627
31.364929 25.302284 1.4047691 4285821741
31.365822 25.304344 1.4037862 4285688879
31.366596 25.305 1.4017943 4286476861
31.366608 25.305012 1.3997945 4286477375
31.3675 25.30707 1.3988116 4286148668
31.366747 25.306438 1.3968035 4286280004
31.367516 25.307089 1.3958117 4286279755
31.368292 25.307745 1.3938198 4286213703
31.367533 25.307106 1.3928118 4286279237
31.368309 25.307762 1.3908199 4286410826
31.369965 25.310465 1.3898451 4286541902
31.358679 25.29571 1.406695 4291347585
31.366085 25.307186 1.3998042 4285231147
31.366091 25.307192 1.3988043 4285362478
31.366102 25.307203 1.3968043 4285098796
31.366228 25.308619 1.3958133 4285426993
31.366119 25.30722 1.3938044 4286018874
31.365366 25.306589 1.3917964 4286018875
31.366257 25.308647 1.3908135 4286149952
31.366148 25.307251 1.3888046 4286346822
31.367804 25.309954 1.3878298 4285228109
31.364048 25.308088 1.3967979 4286085691
31.364054 25.308094 1.395798 4285492786
31.364065 25.308105 1.393798 4285953081
31.363956 25.306709 1.3917891 4285689910
31.365612 25.309412 1.3908143 4285689401
31.362629 25.308197 1.3987906 4290888057
31.363405 25.308853 1.3967987 4288914007
31.362644 25.308214 1.3957907 4287466559
31.362656 25.308228 1.3937907 4286611255
31.362547 25.306829 1.3917818 4285624110
31.363438 25.308889 1.3907989 4284900388
31.360483 25.307703 1.3937753 4289900905
31.361259 25.308359 1.3917835 4288453209
31.36203 25.30901 1.3907917 4287268936
31.363691 25.311718 1.388817 4286414141
31.364582 25.313778 1.3878341 4285952592
31.3615 25.311176 1.3918015 4291480962
31.363155 25.313881 1.3908267 4290428533
31.363287 25.315302 1.3888358 4289179238
31.363173 25.313898 1.3878268 4288125780
31.363304 25.315319 1.3858359 4287138628
31.362787 25.317499 1.3848457 4289309032
31.363056 25.320347 1.3798637 4289310052
31.364979 25.332462 1.3459448 4283587098
31.370739 25.341246 1.3380288 4283718683
31.371635 25.343311 1.336046 4283587097
31.372406 25.343962 1.3350542 4283652890
31.374067 25.34667 1.3330793 4283850269
31.374073 25.346676 1.3320794 4283916062
31.374849 25.347332 1.3300877 4283652890
31.374981 25.348753 1.3280966 4283718683
31.377403 25.3521 1.32713 4283784220
31.374998 25.34877 1.3250967 4283718172
31.37501 25.348782 1.3230968 4284112416
31.371061 25.345432 1.3450555 4283718172
31.376822 25.354216 1.3371395 4283718685
31.376833 25.354227 1.3351395 4283784477
31.376844 25.354239 1.3331397 4283850270
31.37685 25.354244 1.3321396 4283850270
31.376862 25.354256 1.3301398 4283850271
31.376873 25.354269 1.3281398 4283850272
31.381065 25.361723 1.3272073 4283981857
31.381077 25.361734 1.3252074 4283982369
31.377787 25.356352 1.3231571 4283982369
31.377792 25.356358 1.322157 4283916576
31.378874 25.361181 1.3301919 4285034545
31.380415 25.362482 1.3282081 4284902960
