# .PCD v0.7 - Point Cloud Data file format
VERSION 0.7
FIELDS x y z rgba
SIZE 4 4 4 4
TYPE F F F U
COUNT 1 1 1 1
WIDTH 448
HEIGHT 1
VIEWPOINT 0 0 0 1 0 0 0
POINTS 448
DATA ascii
31.331535 24.864876 1.4440092 4286807420
31.333071 24.866171 1.4430255 4290425270
31.328573 24.863686 1.4479856 4284112967
31.328579 24.863691 1.4469856 4283652158
31.328585 24.863697 1.4459857 4283717180
31.33012 24.86499 1.445002 4283650628
31.330126 24.864996 1.4440019 4284438872
31.330896 24.865646 1.4430101 4286346104
31.332432 24.866941 1.4420264 4288779423
31.32793 24.86445 1.4479865 4284376385
31.327936 24.864456 1.4469864 4284376388
31.327942 24.864462 1.4459865 4283981633
31.328711 24.865112 1.4449947 4283849534
31.328716 24.865118 1.4439946 4284046399
31.329487 24.865767 1.4430028 4284374345
31.330257 24.866417 1.442011 4285097047
31.327291 24.865221 1.4469873 4285100111
31.328062 24.86587 1.4459955 4284507977
31.327303 24.865232 1.4449874 4284310085
31.327309 24.865238 1.4439874 4283980606
31.328079 24.865889 1.4429955 4283913794
31.32885 24.866539 1.4420037 4284307531
31.32962 24.867188 1.4410119 4284964954
31.330391 24.867838 1.4400201 4286411635
31.326647 24.865986 1.4469882 4285691740
31.326653 24.865992 1.4459882 4285231698
31.326658 24.865997 1.4449883 4284771147
31.325905 24.865364 1.4429802 4284113217
31.32667 24.866009 1.4429883 4283783738
31.32744 24.866659 1.4419965 4283914809
31.328211 24.86731 1.4410046 4284111421
31.328217 24.867315 1.4400046 4284834634
31.328987 24.867966 1.4390128 4286018916
31.330523 24.869259 1.4380291 4288189838
31.326767 24.867393 1.4469972 4286283877
31.326008 24.866756 1.445989 4286021214
31.326014 24.866762 1.4449891 4285429077
31.324495 24.865486 1.4429729 4284968526
31.326025 24.866774 1.4429891 4284639047
31.326036 24.866785 1.4409893 4284309567
31.326801 24.86743 1.4409974 4283979835
31.327572 24.86808 1.4400055 4284110911
31.327578 24.868086 1.4390055 4284768849
31.329113 24.869379 1.4380218 4285821290
31.32548 24.868923 1.4469988 4289243812
31.32472 24.868286 1.4459908 4286941560
31.324726 24.868292 1.4449908 4286218089
31.323973 24.867659 1.4429827 4285757790
31.324738 24.868303 1.4429909 4285297490
31.324749 24.868315 1.4409909 4284639556
31.325514 24.868959 1.440999 4284376128
31.325525 24.868971 1.4389991 4284112702
31.325529 24.868977 1.4379991 4283783741
31.327059 24.870266 1.4380153 4284178503
31.327829 24.870914 1.4370235 4285428571
31.324076 24.869051 1.4459916 4289639073
31.324081 24.869057 1.4449916 4287402363
31.323328 24.868423 1.4429836 4286218341
31.324093 24.869068 1.4429917 4286152799
31.324104 24.86908 1.4409918 4285494865
31.32411 24.869085 1.4399918 4284770886
31.324881 24.869736 1.4389999 4284375874
31.324886 24.869741 1.438 4284046913
31.325657 24.870392 1.4370081 4284178503
31.326427 24.871042 1.4360163 4283981125
31.327192 24.871687 1.4360244 4286283625
31.324202 24.870466 1.4450006 4290427839
31.322683 24.869188 1.4429845 4287730829
31.323448 24.869833 1.4429926 4286744688
31.32346 24.869844 1.4409926 4286087768
31.323465 24.86985 1.4399927 4285430095
31.323471 24.869856 1.4389926 4284838214
31.323477 24.869862 1.4379927 4284180032
31.324247 24.870512 1.4370009 4283850557
31.325018 24.871162 1.436009 4283718455
31.325788 24.871813 1.4350172 4284244541
31.325794 24.871819 1.4340172 4284836427
31.322798 24.870592 1.4439933 4290625721
31.323568 24.871243 1.4430015 4288192134
31.323574 24.871248 1.4420016 4286943077
31.322821 24.870615 1.4399935 4286482783
31.322826 24.870621 1.4389936 4285759316
31.322832 24.870626 1.4379935 4284706376
31.323603 24.871277 1.4370017 4284376901
31.323608 24.871283 1.4360018 4283915834
31.323614 24.871288 1.4350017 4283718197
31.324385 24.871939 1.4340099 4284244290
31.32439 24.871944 1.43301 4284639054
31.323696 24.872658 1.4420105 4288586135
31.322937 24.872019 1.4410024 4287007862
31.322947 24.87203 1.4390025 4286482277
31.322952 24.872036 1.4380026 4285956446
31.322958 24.872042 1.4370025 4285035344
31.322964 24.872047 1.4360026 4284574792
31.322969 24.872053 1.4350027 4283719225
31.322975 24.872059 1.4340026 4283850042
31.322981 24.872065 1.4330027 4283981116
31.323751 24.872715 1.4320109 4285823078
31.323057 24.873428 1.4410114 4289047445
31.323063 24.873434 1.4400114 4287206000
31.323069 24.87344 1.4390115 4286745962
31.322315 24.872807 1.4370034 4285890653
31.322321 24.872812 1.4360034 4285166929
31.322327 24.872818 1.4350035 4284508741
31.322332 24.872824 1.4340035 4284113214
31.322338 24.872831 1.4330035 4284046909
31.323109 24.87348 1.4320117 4284244046
31.323112 24.873486 1.4310117 4286678145
31.323948 24.875486 1.4400285 4289375658
31.323954 24.875492 1.4390285 4287599749
31.322435 24.874216 1.4370124 4287008627
31.321676 24.873577 1.4360043 4286021987
31.321682 24.873583 1.4350044 4285298518
31.321688 24.873589 1.4340043 4284442952
31.321693 24.873594 1.4330044 4284508487
31.321699 24.873602 1.4320045 4284047171
31.32247 24.87425 1.4310126 4283915077
31.322475 24.874258 1.4300126 4285493856
31.324011 24.875551 1.4290289 4286743415
31.325603 24.878189 1.4390538 4289770918
31.32408 24.876907 1.4380375 4287732350
31.321796 24.874987 1.4360132 4287074675
31.321037 24.874348 1.4350052 4286482792
31.321043 24.874353 1.4340053 4285166675
31.321049 24.874359 1.4330052 4284574280
31.32029 24.873722 1.4319972 4284310343
31.32106 24.874372 1.4310054 4284046663
31.321831 24.875021 1.4300134 4284046410
31.322601 24.875671 1.4290216 4284506453
31.323372 24.876322 1.4280298 4285164381
31.324907 24.877617 1.4270461 4286019688
31.324322 24.879726 1.4380555 4289507750
31.322798 24.878443 1.4370393 4287797891
31.321922 24.876402 1.4350222 4287140718
31.321163 24.875763 1.4340142 4286416995
31.321169 24.875769 1.4330142 4285364307
31.32041 24.875132 1.4320061 4284640583
31.320415 24.875137 1.4310062 4284179773
31.321186 24.875786 1.4300143 4283653425
31.321192 24.875793 1.4290143 4283916849
31.321203 24.875805 1.4270144 4283982135
31.322088 24.877857 1.4270315 4284836936
31.325966 24.882418 1.4390807 4289178785
31.324448 24.88114 1.4370645 4287403133
31.322924 24.879858 1.4360483 4287469683
31.320641 24.877937 1.434024 4287009132
31.319881 24.877298 1.4330159 4286153823
31.319887 24.877304 1.4320159 4285561685
31.319128 24.876667 1.4310079 4284706117
31.319134 24.876673 1.4300079 4284245562
31.319145 24.876684 1.428008 4283851056
31.319151 24.87669 1.427008 4283850549
31.319921 24.87734 1.4260161 4284310592
31.32069 24.877991 1.4250243 4285099852
31.324568 24.882549 1.4370735 4285363048
31.323809 24.88191 1.4360653 4286285680
31.322285 24.880629 1.4350492 4287075703
31.320766 24.879353 1.433033 4286615915
31.320007 24.878714 1.432025 4286221412
31.319248 24.878075 1.4310168 4285234515
31.318489 24.877438 1.4300088 4284707654
31.317736 24.876804 1.4280007 4284049208
31.317741 24.87681 1.4270008 4283851317
31.318512 24.87746 1.4260088 4283850806
31.318518 24.877466 1.4250089 4284244542
31.319288 24.878117 1.4240171 4285559636
31.323929 24.88332 1.4360744 4284246097
31.32317 24.882683 1.4350662 4286088808
31.322411 24.882044 1.4340582 4287208052
31.320892 24.880768 1.432042 4287339893
31.319368 24.879484 1.4310257 4286287203
31.318609 24.878845 1.4300177 4285365584
31.317856 24.878214 1.4280096 4284641345
31.317862 24.87822 1.4270097 4284180282
31.317102 24.877581 1.4260015 4283785013
31.317108 24.877586 1.4250016 4283981370
31.317879 24.878237 1.4240098 4284506948
31.319414 24.879532 1.4230261 4287137408
31.324055 24.884735 1.4350834 4284245836
31.323296 24.884096 1.4340752 4286154852
31.321772 24.882814 1.4330591 4287274356
31.320253 24.881538 1.4310429 4286880363
31.318729 24.880255 1.4300267 4286484578
31.317211 24.878979 1.4280105 4285694035
31.317217 24.878984 1.4270105 4284969805
31.316458 24.878345 1.4260024 4284311623
31.315699 24.877708 1.4249943 4284113478
31.316469 24.878357 1.4240025 4283980870
31.318005 24.879652 1.4230188 4284703324
31.318775 24.880302 1.422027 4287202447
31.323418 24.885506 1.4340842 4283852097
31.322659 24.884867 1.4330761 4285892703
31.321135 24.883585 1.4320599 4287209328
31.318851 24.881664 1.4300356 4287668852
31.317327 24.880383 1.4290195 4286680930
31.316572 24.879749 1.4270114 4286022493
31.315813 24.87911 1.4260033 4285101139
31.315054 24.878473 1.4249952 4284574029
31.31506 24.878479 1.4239953 4284375628
31.31583 24.879129 1.4230034 4284111187
31.317366 24.880423 1.4220197 4284899692
31.317371 24.880428 1.4210197 4287596438
31.322779 24.886276 1.4330851 4284508500
31.321255 24.884995 1.4320689 4286416239
31.319736 24.883717 1.4300528 4288127364
31.318213 24.882435 1.4290365 4287864955
31.316694 24.881159 1.4270203 4287009646
31.315935 24.88052 1.4260123 4286022751
31.314411 24.879238 1.424996 4285101137
31.314417 24.879244 1.4239961 4284705868
31.315187 24.879894 1.4230043 4284179017
31.315958 24.880543 1.4220124 4283915593
31.315964 24.880548 1.4210124 4284901475
31.316734 24.881199 1.4200206 4288189855
31.321495 24.887812 1.4320868 4287403134
31.320616 24.885765 1.4310697 4289640603
31.319098 24.884487 1.4290537 4289049229
31.318338 24.88385 1.4280455 4288062334
31.316814 24.882566 1.4270294 4287207025
31.315296 24.88129 1.4250132 4286088032
31.314537 24.880651 1.424005 4285363798
31.314543 24.880659 1.4230051 4284705361
31.314548 24.880665 1.4220052 4284244558
31.314554 24.880671 1.4210051 4284309338
31.315325 24.881321 1.4200133 4285097584
31.31686 24.882614 1.4190296 4288518308
31.318573 24.886662 1.4290634 4290692541
31.318579 24.886667 1.4280635 4289574306
31.317699 24.884621 1.4270464 4288719243
31.314651 24.882055 1.425014 4287403385
31.313892 24.881416 1.4240059 4286416492
31.313898 24.881424 1.4230059 4285364056
31.313904 24.88143 1.422006 4284706377
31.31315 24.880796 1.4199979 4284179529
31.313921 24.881447 1.4190061 4284178511
31.314686 24.882092 1.4190142 4285098593
31.315456 24.88274 1.4180224 4288123794
31.31946 24.888716 1.4290805 4291153338
31.317177 24.886795 1.4270562 4290035103
31.315536 24.884109 1.4250311 4288653452
31.313248 24.882181 1.4240067 4287666559
31.312489 24.881544 1.4229987 4286548330
31.313259 24.882195 1.4220068 4285693272
31.312506 24.881561 1.4199988 4284640080
31.312511 24.881567 1.4189988 4284375890
31.313282 24.882217 1.418007 4284045905
31.314053 24.882868 1.4170151 4285031523
31.314058 24.882874 1.4160151 4287859856
31.315008 24.886276 1.4260409 4290363833
31.31337 24.883591 1.4240158 4288720023
31.312611 24.882954 1.4230076 4287667844
31.312616 24.882959 1.4220077 4286351979
31.312622 24.882965 1.4210078 4285233239
31.311867 24.882332 1.4189997 4284574793
31.311872 24.882338 1.4179997 4284376390
31.312643 24.882988 1.4170078 4283914559
31.312649 24.882994 1.4160079 4285032027
31.312654 24.882999 1.4150079 4287991442
31.31361 24.88641 1.4240336 4290430641
31.312086 24.885126 1.4230175 4288654739
31.311327 24.884489 1.4220093 4287470460
31.311333 24.884495 1.4210094 4286680685
31.310579 24.883862 1.4190013 4285627481
31.310585 24.883867 1.4180014 4284902734
31.310591 24.883873 1.4170014 4284638282
31.311361 24.884523 1.4160095 4284703062
31.311367 24.884529 1.4150096 4285228136
31.312138 24.88518 1.4140178 4288517533
31.311441 24.885891 1.4230183 4290429365
31.310682 24.885254 1.4220102 4288916885
31.309929 24.884621 1.4200021 4287667067
31.309935 24.884626 1.4190022 4286811752
31.30994 24.884632 1.4180022 4285626969
31.309946 24.884638 1.4170023 4284836688
31.309952 24.884644 1.4160023 4284638542
31.310722 24.885294 1.4150105 4284374345
31.310728 24.8853 1.4140105 4285229151
31.311499 24.88595 1.4130187 4287991696
31.310799 24.886656 1.4230192 4290495158
31.31004 24.886019 1.422011 4289509022
31.309286 24.885386 1.4200031 4288851341
31.30929 24.885391 1.419003 4287732854
31.309296 24.885397 1.4180031 4286613864
31.309301 24.885403 1.4170032 4285757790
31.309307 24.885408 1.4160031 4285296472
31.310078 24.886059 1.4150113 4284900689
31.310083 24.886065 1.4140114 4284373842
31.310854 24.886715 1.4130195 4285031011
31.31086 24.886721 1.4120195 4287135367
31.309401 24.886789 1.4210119 4289113498
31.309412 24.886801 1.4190121 4288587661
31.309418 24.886806 1.418012 4288127361
31.308659 24.886168 1.417004 4287272303
31.308664 24.886173 1.4160041 4285693019
31.309435 24.886824 1.4150121 4284903251
31.309441 24.886829 1.4140122 4284441932
31.309446 24.886835 1.4130123 4284046663
31.30945 24.886841 1.4120122 4284440152
31.310221 24.887491 1.4110204 4287005068
31.310291 24.888847 1.420029 4289640349
31.310297 24.888853 1.4190291 4288916877
31.309544 24.888222 1.417021 4288193405
31.309549 24.888227 1.4160211 4286877293
31.309555 24.888233 1.4150212 4285890146
31.309561 24.888239 1.4140211 4285165655
31.308802 24.8876 1.4130131 4284638800
31.308807 24.887606 1.4120131 4284440152
31.308813 24.887611 1.4110131 4284570727
31.309584 24.888262 1.4100213 4287465625
31.310417 24.890263 1.4190381 4290099888
31.310423 24.890268 1.4180381 4289245344
31.309669 24.889637 1.41603 4288390289
31.309675 24.889643 1.4150301 4287074682
31.308916 24.889004 1.414022 4285824613
31.308157 24.888365 1.4130139 4285232473
31.307398 24.887728 1.4120058 4284310863
31.308168 24.888376 1.411014 4284244304
31.308174 24.888384 1.410014 4284770144
31.308945 24.889032 1.4090222 4286677381
31.309715 24.889683 1.4080303 4289768632
31.31143 24.89373 1.4180641 4291284927
31.310549 24.891684 1.4170471 4289377184
31.309795 24.89105 1.4150391 4288258956
31.308271 24.889769 1.4140228 4286943094
31.306747 24.888487 1.4130067 4285890403
31.305988 24.887848 1.4119985 4284968793
31.306 24.887859 1.4099987 4284310097
31.30677 24.88851 1.4090068 4283980628
31.307541 24.88916 1.4080149 4284440419
31.308311 24.889811 1.4070231 4286742154
31.309267 24.893219 1.4160489 4289704878
31.307627 24.890533 1.4140238 4288520602
31.306103 24.889252 1.4130075 4287533962
31.304585 24.887974 1.4109913 4286152813
31.30459 24.88798 1.4099914 4285232216
31.305361 24.88863 1.4089996 4284376141
31.305367 24.888636 1.4079995 4284046666
31.306137 24.889286 1.4070077 4284637781
31.306908 24.889936 1.4060159 4287137150
31.307678 24.890587 1.4050241 4290754742
31.307104 24.892708 1.4140335 4289902255
31.30546 24.890017 1.4130083 4288455064
31.303942 24.888739 1.4109921 4287468673
31.303947 24.888744 1.4099922 4286284904
31.303953 24.88875 1.4089923 4285165657
31.303959 24.888756 1.4079922 4284441424
31.304729 24.889406 1.4070004 4283979851
31.3055 24.890057 1.4060086 4284702809
31.306269 24.890707 1.4050168 4287070334
31.307161 24.892767 1.4040339 4289372068
31.307932 24.893415 1.403042 4291015871
31.30558 24.891424 1.4130173 4289967025
31.303297 24.889503 1.410993 4288652181
31.302538 24.888866 1.4099849 4287468410
31.303308 24.889515 1.4089931 4286086757
31.303314 24.889521 1.4079931 4285297241
31.30332 24.889528 1.4069932 4284507469
31.303326 24.889534 1.4059932 4283783491
31.304861 24.890827 1.4050095 4284440398
31.304987 24.892242 1.4040184 4286084458
31.305758 24.892893 1.4030266 4288451472
31.302652 24.890268 1.4109938 4289968041
31.301893 24.889631 1.4099858 4288784270
31.301899 24.889637 1.4089859 4287205238
31.30267 24.890285 1.4079939 4286152550
31.302675 24.890293 1.406994 4285296985
31.302681 24.890299 1.4059941 4284375628
31.303452 24.890947 1.4050022 4284111433
31.303577 24.892363 1.4040111 4284505426
31.304348 24.893013 1.4030193 4285819752
31.301371 24.891804 1.4099956 4289968040
31.301254 24.890402 1.4089867 4288389517
31.30126 24.890408 1.4079866 4287139961
31.301388 24.891823 1.4069957 4286153575
31.301271 24.890419 1.4059868 4284969553
31.301397 24.891834 1.4049958 4284245061
31.302168 24.892485 1.4040039 4283915327
31.302174 24.89249 1.4030039 4284308552
31.302944 24.893139 1.4020121 4285426012
31.300726 24.892569 1.4099964 4291283900
31.301497 24.893219 1.4090046 4289771170
31.300737 24.89258 1.4079965 4288258442
31.300743 24.892588 1.4069965 4287403642
31.299984 24.891949 1.4059885 4286219620
31.300755 24.892599 1.4049966 4285100370
31.301525 24.89325 1.4040048 4284310085
31.301531 24.893255 1.4030048 4284045380
31.301537 24.893261 1.4020048 4284307531
31.301622 24.894634 1.4080136 4289836715
31.301628 24.89464 1.4070137 4288324238
31.300869 24.894001 1.4060055 4287140470
31.300875 24.894007 1.4050056 4285956192
31.30088 24.894014 1.4040056 4285166671
31.300886 24.89402 1.4030056 4284310595
31.300892 24.894026 1.4020057 4283981120
31.301662 24.894676 1.4010139 4283848769
31.302513 24.896692 1.4070307 4290034856
31.300224 24.894766 1.4060063 4288522123
31.30023 24.894772 1.4050064 4287272052
31.300236 24.894779 1.4040065 4286350945
31.300241 24.894785 1.4030064 4285231697
31.300247 24.894791 1.4020065 4284639050
31.300253 24.894796 1.4010066 4284046148
31.301023 24.895447 1.4000148 4283913796
31.301794 24.896095 1.3990228 4284176720
31.300344 24.896175 1.4060154 4289574572
31.30035 24.896181 1.4050153 4288127884
31.300356 24.896187 1.4040154 4287207538
31.298832 24.894905 1.4029992 4285759839
31.298843 24.894917 1.4009993 4284904276
31.299608 24.895561 1.4010074 4284377413
31.29962 24.895573 1.3990074 4283718452
31.30039 24.896223 1.3980156 4283980610
31.301161 24.896873 1.3970238 4284637525
31.298189 24.89567 1.4030001 4287075699
31.297436 24.895037 1.400992 4285693792
31.298206 24.895687 1.4000002 4284772171
31.298975 24.896338 1.3990083 4284179003
31.298981 24.896343 1.3980083 4283849024
31.298986 24.896349 1.3970084 4283913802
31.299757 24.896999 1.3960166 4285558376
31.297556 24.896446 1.401001 4287075694
31.297562 24.896452 1.400001 4285759067
31.297567 24.896458 1.399001 4285100628
31.297573 24.896463 1.3980011 4284244552
31.298344 24.897114 1.3970093 4283717698
31.298349 24.89712 1.3960093 4283914572
31.29912 24.89777 1.3950174 4285756271
31.296917 24.897217 1.4000019 4286680169
31.296923 24.897223 1.3990018 4285890144
31.296164 24.896584 1.3979938 4284902482
31.296934 24.897234 1.397002 4284375628
31.297705 24.897884 1.3960102 4283914572
31.29771 24.89789 1.3950101 4283914067
31.295519 24.897348 1.3979946 4285430874
31.296289 24.897999 1.3970028 4284706895
31.296295 24.898005 1.3960029 4284180293
31.297066 24.898655 1.3950109 4283719484
31.295645 24.898764 1.3970037 4285496411
31.295773 24.900179 1.3960127 4284838223
31.295778 24.900185 1.3950127 4284245828
31.295784 24.90019 1.3940127 4283521347
31.295122 24.900938 1.3970134 4286549612
31.295128 24.900944 1.3960135 4285562970
31.294369 24.900305 1.3950055 4284576585
31.295139 24.900955 1.3940135 4283786302
31.295248 24.902353 1.3960224 4286681451
31.294489 24.901714 1.3950144 4285366101
