# .PCD v0.7 - Point Cloud Data file format
VERSION 0.7
FIELDS x y z rgba
SIZE 4 4 4 4
TYPE F F F U
COUNT 1 1 1 1
WIDTH 193
HEIGHT 1
VIEWPOINT 0 0 0 1 0 0 0
POINTS 193
DATA ascii
31.256697 24.843845 1.2944567 4289110456
31.255173 24.842562 1.2934405 4288978869
31.254419 24.84193 1.2914325 4288255659
31.255955 24.843224 1.2904487 4288124330
31.257616 24.845934 1.288474 4287335070
31.260681 24.848516 1.2875065 4286940824
31.269999 24.858959 1.3056213 4288913847
31.260723 24.849842 1.301515 4289374397
31.259964 24.849205 1.3005069 4289374395
31.255255 24.843929 1.3004493 4288979635
31.25526 24.843937 1.2994493 4288913583
31.255266 24.843943 1.2984493 4288913324
31.252989 24.842028 1.2954251 4287597713
31.252995 24.842033 1.2944251 4287400332
31.252234 24.841394 1.293417 4287268744
31.252239 24.8414 1.292417 4287268998
31.25301 24.842051 1.2914252 4286875264
31.25378 24.842701 1.2904333 4286547067
31.255316 24.843994 1.2894496 4286415737
31.259285 24.849934 1.3065076 4288716982
31.258526 24.849297 1.3054994 4288716468
31.259296 24.849945 1.3045076 4288716468
31.261597 24.851885 1.303532 4288453296
31.256248 24.847382 1.3024752 4288190123
31.254599 24.844683 1.3024501 4287992744
31.253839 24.844046 1.3014419 4287663777
31.252316 24.842762 1.3004258 4287532189
31.252321 24.842768 1.2994257 4287795102
31.251562 24.842131 1.2984177 4287334292
31.252333 24.842779 1.2974259 4287005580
31.252338 24.842787 1.2964258 4286939785
31.252344 24.842793 1.2954259 4287202955
31.25082 24.841509 1.2944096 4287202953
31.251591 24.842159 1.2934178 4286939779
31.251596 24.842165 1.2924179 4287137412
31.251602 24.842171 1.291418 4287204229
31.252373 24.842821 1.290426 4287270790
31.253931 24.845425 1.3064507 4287204500
31.253937 24.84543 1.3054508 4287138706
31.253937 24.84543 1.3054508 4287072911
31.253942 24.845436 1.3044508 4286875785
31.252419 24.844154 1.3034346 4286875524
31.250895 24.842871 1.3024184 4287072899
31.251665 24.843521 1.3014265 4287072897
31.251671 24.843527 1.3004266 4287007357
31.250912 24.84289 1.2994184 4287138942
31.251682 24.843538 1.2984266 4287336320
31.252453 24.844189 1.2974348 4287336321
31.253223 24.844839 1.296443 4287467908
31.253229 24.844845 1.2954429 4287730826
31.25094 24.842918 1.2944187 4287862414
31.250181 24.842279 1.2934105 4288059794
31.249422 24.841642 1.2924025 4288322968
31.250193 24.842293 1.2914107 4288454555
31.253277 24.846178 1.3084515 4286086788
31.253283 24.846184 1.3074516 4286151813
31.253288 24.846189 1.3064516 4286480777
31.252523 24.845545 1.3064435 4286546569
31.253294 24.846195 1.3054516 4286809739
31.252535 24.845556 1.3044435 4286941578
31.251011 24.844275 1.3034273 4287072903
31.25025 24.843636 1.3024192 4287336071
31.25102 24.844286 1.3014274 4287533448
31.250261 24.843649 1.3004193 4287731080
31.249531 24.843039 1.2944114 4288717723
31.250301 24.843689 1.2934195 4289573033
31.250307 24.843695 1.2924196 4289967793
31.250313 24.8437 1.2914196 4289375657
31.260321 24.854712 1.3225421 4282599225
31.260344 24.854734 1.3185422 4289309868
31.260349 24.85474 1.3175422 4289310126
31.254139 24.848207 1.3124685 4287139715
31.254145 24.848213 1.3114685 4286942335
31.254271 24.849628 1.3104775 4287271043
31.253391 24.84758 1.3094604 4287204993
31.253397 24.847588 1.3084605 4286546806
31.252638 24.846949 1.3074524 4286283634
31.251873 24.846304 1.3074443 4286218098
31.251879 24.84631 1.3064443 4286021233
31.251884 24.846315 1.3054444 4286810751
31.251125 24.845678 1.3044362 4287468683
31.250366 24.845039 1.3034282 4288192150
31.249607 24.8444 1.3024201 4289046948
31.249613 24.844406 1.3014201 4289375916
31.249619 24.844412 1.3004202 4289244333
31.248859 24.843775 1.299412 4289310127
31.252689 24.847002 1.2984527 4289046956
31.252695 24.847008 1.2974527 4289046441
31.252701 24.847013 1.2964528 4289243818
31.254362 24.849722 1.2944781 4289243817
31.257383 24.853544 1.3225186 4284244050
31.258154 24.854193 1.3215268 4285361513
31.255865 24.852266 1.3205024 4287927699
31.255871 24.852272 1.3195025 4288388509
31.256641 24.852922 1.3185105 4287928215
31.256647 24.852928 1.3175106 4287796887
31.254379 24.851025 1.3124864 4287666059
31.254385 24.851032 1.3114865 4287468679
31.254391 24.851038 1.3104864 4287336836
31.256733 24.854303 1.3235193 4285692249
31.256739 24.854309 1.3225194 4285166166
31.25598 24.85367 1.3215113 4285560929
31.25522 24.853031 1.3205032 4287139705
31.254461 24.852394 1.3194952 4287336827
31.255232 24.853043 1.3185033 4287336317
31.255238 24.85305 1.3175033 4287599492
31.254496 24.852428 1.3134954 4288782232
31.255266 24.853079 1.3125035 4289375139
31.255272 24.853085 1.3115035 4289309860
31.256847 24.855705 1.3245283 4286876780
31.256088 24.855066 1.3235202 4286547558
31.255329 24.854429 1.3225121 4285824096
31.25457 24.85379 1.321504 4285824101
31.253811 24.853153 1.320496 4286087017
31.253817 24.853159 1.319496 4286876276
31.253822 24.853165 1.318496 4287928454
31.253828 24.85317 1.3174961 4288454801
31.255381 24.854483 1.3135124 4290098092
31.255386 24.854488 1.3125125 4290164655
31.256157 24.855137 1.3115206 4290230962
31.266993 24.866858 1.3316516 4287862924
31.257732 24.857759 1.3245454 4287534200
31.256208 24.856476 1.3235292 4286547560
31.255449 24.855839 1.3225211 4286284135
31.25469 24.8552 1.3215131 4286415724
31.253931 24.854561 1.3205049 4285692002
31.253172 24.853924 1.3194969 4287994757
31.253942 24.854572 1.318505 4289639072
31.253948 24.854578 1.317505 4289901477
31.254719 24.855228 1.3165132 4290032808
31.256254 24.856524 1.3155295 4289966504
31.258554 24.858461 1.3145539 4290887608
31.271793 24.87351 1.3367181 4287468167
31.267855 24.868887 1.3356686 4287599753
31.266331 24.867603 1.3346523 4287731339
31.265572 24.866966 1.3336443 4287862925
31.264048 24.865683 1.332628 4287665546
31.262524 24.864401 1.3316119 4287797131
31.25709 24.858524 1.3245462 4288718474
31.25633 24.857885 1.3235382 4287337076
31.257893 24.859209 1.3175546 4290559407
31.259428 24.860504 1.3165709 4290361773
31.258669 24.859865 1.3155627 4289703332
31.270372 24.873619 1.3387107 4286613865
31.267199 24.86964 1.3376693 4287272052
31.266439 24.869001 1.3366612 4287469687
31.26568 24.868362 1.3356532 4287469433
31.264921 24.867725 1.334645 4287469435
31.264162 24.867086 1.333637 4287337851
31.262638 24.865805 1.3326207 4287074168
31.261114 24.864521 1.3316046 4287731843
31.260361 24.86389 1.3295965 4288849814
31.274307 24.878239 1.3407602 4287272061
31.269724 24.874378 1.3397115 4287337850
31.2682 24.873096 1.3386953 4287732346
31.265791 24.869761 1.337662 4287929982
31.26503 24.869122 1.3366539 4287732859
31.264271 24.868484 1.3356459 4287469433
31.264288 24.868502 1.332646 4285363550
31.262764 24.867218 1.3316298 4284573779
31.26354 24.867874 1.3296379 4285559908
31.264311 24.868525 1.3286461 4285165151
31.262028 24.866604 1.3266218 4285559907
31.262798 24.867254 1.3256299 4287599488
31.279119 24.884903 1.3438268 4287206267
31.274422 24.879641 1.3417692 4287864197
31.271368 24.877069 1.3407367 4287995783
31.268314 24.8745 1.3397043 4287864197
31.26667 24.871807 1.3386791 4287732611
31.267441 24.872458 1.3376873 4286679669
31.265917 24.871176 1.336671 4285955692
31.265158 24.870537 1.335663 4285297252
31.265163 24.870543 1.334663 4283915345
31.265169 24.870548 1.333663 4283520587
31.276175 24.88373 1.3448032 4287930246
31.273771 24.8804 1.34277 4287995783
31.270718 24.877829 1.3417375 4287929990
31.267664 24.875257 1.340705 4286877302
31.26614 24.873976 1.3396889 4285758821
31.266026 24.872572 1.3386799 4284245582
31.269211 24.876564 1.3377215 4283324226
31.268452 24.875925 1.3367133 4283455558
31.269987 24.87722 1.3357296 4283060290
31.271523 24.878515 1.3347459 4282336313
31.270832 24.879232 1.3427465 4285890676
31.268543 24.877306 1.3417221 4286087801
31.268549 24.877312 1.3407222 4286613634
31.26932 24.877962 1.3397304 4287336588
31.267796 24.876678 1.3387141 4287533454
31.26943 24.879358 1.3417392 4290232760
31.276497 24.887917 1.3518299 4288258956
31.273443 24.885345 1.3507974 4288719254
31.271034 24.88201 1.3497642 4289508773
