# .PCD v0.7 - Point Cloud Data file format
VERSION 0.7
FIELDS x y z rgba
SIZE 4 4 4 4
TYPE F F F U
COUNT 1 1 1 1
WIDTH 457
HEIGHT 1
VIEWPOINT 0 0 0 1 0 0 0
POINTS 457
DATA ascii
31.402164 24.649569 1.6511502 4284571728
31.407267 24.651249 1.6531891 4285032538
31.411728 24.6537 1.6542288 4285690727
31.408806 24.65255 1.6512053 4286217071
31.405121 24.650755 1.6481738 4286282607
31.400116 24.650461 1.6501439 4285296189
31.406622 24.652014 1.6531899 4285361734
31.410318 24.65382 1.6542215 4285427278
31.411083 24.654465 1.6542296 4285493077
31.411089 24.65447 1.6532296 4286150756
31.410336 24.653837 1.6512216 4286413930
31.410341 24.653843 1.6502216 4286019174
31.410347 24.653849 1.6492217 4285558621
31.370913 24.640257 1.638918 4287928402
31.378181 24.642454 1.6419722 4287730511
31.386976 24.645933 1.6460426 4287336014
31.392841 24.648258 1.6480896 4287007052
31.397943 24.649937 1.6501285 4286612300
31.403044 24.651617 1.6521673 4286283084
31.404573 24.652905 1.6521835 4286217043
31.407507 24.654066 1.6532069 4286019415
31.409681 24.654591 1.6532223 4285822042
31.409687 24.654596 1.6522224 4285887584
31.408928 24.653957 1.6512144 4286084965
31.409698 24.654608 1.6502225 4285756002
31.409704 24.654613 1.6492225 4285427035
31.407541 24.654102 1.6472071 4285361240
31.408951 24.653982 1.6472144 4285295702
31.372437 24.641539 1.6399342 4289901680
31.378304 24.643864 1.6419812 4289243754
31.383404 24.645542 1.6440201 4288717408
31.389265 24.647861 1.647067 4288256855
31.394371 24.649546 1.6481059 4287796304
31.398064 24.651346 1.6501374 4287335753
31.402405 24.652388 1.6511681 4287138376
31.403934 24.653675 1.6511844 4286743620
31.406109 24.6542 1.6511998 4286414657
31.408278 24.654716 1.6522151 4286414404
31.406879 24.65485 1.650208 4286545993
31.406885 24.654856 1.6492079 4286085445
31.408295 24.654736 1.6492152 4285756483
31.407541 24.654102 1.6472071 4285690438
31.407547 24.654108 1.6462072 4285492806
31.408312 24.654753 1.6462153 4285360711
31.408318 24.654758 1.6452154 4285098314
31.381994 24.645664 1.6440128 4291349130
31.384928 24.646826 1.6450362 4290756991
31.39003 24.648504 1.6470751 4290296438
31.392962 24.649666 1.6480986 4289704301
31.395895 24.650829 1.649122 4289046371
31.398834 24.651997 1.6491455 4288520029
31.400358 24.653278 1.6501617 4287927894
31.401773 24.653164 1.6491691 4287467345
31.403303 24.654453 1.6491853 4287006541
31.404711 24.654331 1.6491926 4287138130
31.404716 24.654337 1.6481926 4286874961
31.404722 24.654343 1.6471926 4286611792
31.405487 24.654987 1.6472007 4286414161
31.404734 24.654356 1.6451927 4286019150
31.405499 24.654999 1.6452008 4285689676
31.406908 24.654879 1.6452081 4285427279
31.406914 24.654884 1.6442081 4285164626
31.408443 24.656174 1.6442244 4284901456
31.385036 24.648222 1.6470451 4292861588
31.38797 24.649384 1.6480687 4292598417
31.390909 24.650553 1.6480922 4292269453
31.393843 24.651714 1.6491156 4291743112
31.396015 24.652237 1.6491309 4291348614
31.39678 24.652882 1.6491392 4290625151
31.39819 24.652761 1.6491464 4289704054
31.39896 24.653412 1.6481545 4289440883
31.399725 24.654055 1.6481627 4288717161
31.401899 24.654579 1.6481781 4288256608
31.401905 24.654585 1.6471781 4287927897
31.401911 24.654591 1.6461781 4287598419
31.403318 24.65447 1.6461854 4287466576
31.403324 24.654476 1.6451855 4286874697
31.40333 24.654482 1.6441854 4286809162
31.4041 24.655132 1.6431936 4286545991
31.404865 24.655777 1.6432017 4286151234
31.404871 24.655783 1.6422018 4285822272
31.407045 24.656305 1.6422172 4285690689
31.40781 24.65695 1.6422253 4285559104
31.409225 24.656836 1.6412326 4285098553
31.383629 24.648344 1.6470379 4290887801
31.38656 24.649506 1.6480614 4292137865
31.392433 24.651834 1.6491083 4293124762
31.393198 24.652479 1.6491164 4293058972
31.395372 24.653002 1.6491319 4292796060
31.395378 24.653008 1.6481318 4292335769
31.396143 24.653652 1.64814 4291546258
31.397551 24.653532 1.6481472 4291085708
31.398321 24.654182 1.6471554 4290625158
31.399731 24.65406 1.6471627 4290164605
31.399736 24.654068 1.6461627 4289704308
31.400501 24.654711 1.6461709 4289177451
31.401272 24.655361 1.645179 4288782436
31.401278 24.655367 1.644179 4288124764
31.400518 24.65473 1.643171 4287861850
31.401289 24.655378 1.6421791 4287335507
31.401295 24.655384 1.6411792 4287072336
31.402704 24.655264 1.6411865 4286677581
31.403469 24.655909 1.6411946 4286480205
31.40424 24.656559 1.6402026 4286282827
31.405647 24.656437 1.6402099 4285822276
31.406418 24.657087 1.6392181 4285427776
31.406418 24.657087 1.6392181 4285164605
31.407833 24.656973 1.6382254 4284704316
31.408598 24.657618 1.6382335 4284309564
31.408604 24.657623 1.6372336 4284177985
31.410778 24.658146 1.637249 4283782978
31.399057 24.654797 1.6521634 4291348104
31.397655 24.654922 1.6511562 4292071826
31.396902 24.654291 1.6491481 4292663964
31.396902 24.654291 1.6491481 4292861343
31.396908 24.654297 1.6481482 4292795551
31.396914 24.654303 1.6471481 4292466587
31.397684 24.654953 1.6461563 4292137110
31.397688 24.654959 1.6451564 4291807889
31.397694 24.654964 1.6441563 4291347338
31.399103 24.654844 1.6441636 4290820994
31.399868 24.655487 1.6441717 4290163065
31.399115 24.654856 1.6421638 4289899894
31.39912 24.654861 1.6411637 4289308522
31.399126 24.654867 1.6401638 4288322650
31.399891 24.655512 1.6401719 4287862359
31.400656 24.656157 1.64018 4287664982
31.402071 24.65604 1.6391873 4287401813
31.402077 24.656046 1.6381874 4286875472
31.402842 24.656691 1.6381955 4286349387
31.404249 24.65657 1.6382028 4285889095
31.40502 24.657221 1.6372108 4285428802
31.405025 24.657227 1.6362109 4285100096
31.40579 24.657871 1.636219 4284968513
31.407965 24.658394 1.6362345 4284574015
31.410139 24.658918 1.6362499 4284244798
31.411669 24.660206 1.6362661 4284113215
31.414602 24.661367 1.6372895 4283981889
31.419708 24.663054 1.6383284 4283784770
31.39995 24.656857 1.6511805 4291084932
31.399956 24.656862 1.6501806 4292137621
31.399961 24.656868 1.6491805 4292532380
31.399967 24.656874 1.6481806 4292597661
31.399208 24.656235 1.6471725 4292794784
31.398453 24.655603 1.6451645 4292794784
31.398458 24.655609 1.6441644 4292465819
31.398464 24.655615 1.6431645 4291873683
31.39847 24.655621 1.6421646 4291544719
31.397068 24.655746 1.6411574 4291084933
31.397074 24.655752 1.6401573 4290493819
31.397079 24.655758 1.6391574 4289704563
31.398487 24.655638 1.6391647 4289112428
31.399258 24.656288 1.6381729 4288651880
31.400667 24.656168 1.6381801 4287993953
31.400673 24.656174 1.6371801 4287336282
31.400679 24.656179 1.6361802 4286810197
31.402208 24.657467 1.6361964 4286349904
31.403618 24.657347 1.6362036 4285955405
31.403624 24.657352 1.6352037 4285692236
31.405153 24.658642 1.6352199 4285231945
31.407326 24.659164 1.6352353 4285034314
31.4095 24.659689 1.6352507 4284902731
31.41103 24.660976 1.635267 4284639819
31.416132 24.662657 1.6373059 4284376907
31.421238 24.664341 1.6383446 4284376395
31.424171 24.665504 1.6393682 4284310346
31.429272 24.667183 1.641407 4283915845
31.399334 24.65765 1.6461815 4292268450
31.39934 24.657656 1.6451815 4292532135
31.398581 24.657017 1.6441735 4292795052
31.398586 24.657022 1.6431735 4292663467
31.397068 24.655746 1.6411574 4292268971
31.39567 24.65588 1.6391501 4291874732
31.395676 24.655886 1.6381502 4291283101
31.397085 24.655764 1.6381575 4290822800
31.397089 24.655771 1.6371574 4290428293
31.397854 24.656414 1.6371655 4289638772
31.398624 24.657064 1.6361737 4288783723
31.39863 24.65707 1.6351738 4287862881
31.40004 24.65695 1.6351811 4287205212
31.400805 24.657595 1.6351892 4286744921
31.401575 24.658243 1.6341974 4286284369
31.403749 24.658768 1.6342127 4285758281
31.405924 24.65929 1.6342281 4285429828
31.406689 24.659935 1.6342362 4285166911
31.408861 24.66046 1.6342516 4285035325
31.410391 24.661747 1.6342678 4284969532
31.415493 24.663427 1.6363066 4284969278
31.41843 24.664595 1.6363302 4284968769
31.422773 24.665636 1.6373609 4284705599
31.426466 24.667437 1.6393925 4284508222
31.431572 24.669121 1.6404314 4284244796
31.400105 24.6583 1.6451896 4293584568
31.397942 24.657787 1.6431744 4294045120
31.397947 24.657795 1.6421744 4293716417
31.396429 24.656517 1.6401582 4293190592
31.395031 24.656651 1.638151 4292664754
31.395031 24.656651 1.638151 4292204453
31.396446 24.656536 1.6371583 4291546774
31.396452 24.656542 1.6361583 4290625667
31.397217 24.657185 1.6361665 4289639032
31.397987 24.657835 1.6351746 4288652397
31.399395 24.657715 1.6351819 4287863142
31.40016 24.65836 1.63519 4287337058
31.400166 24.658365 1.6341901 4286876506
31.40234 24.658888 1.6342055 4286350418
31.40387 24.660177 1.6342217 4286021965
31.403875 24.660183 1.6332217 4285693255
31.405285 24.660063 1.633229 4285561669
31.406815 24.66135 1.6332452 4285495876
31.408987 24.661875 1.6332606 4285429829
31.411926 24.663042 1.6332841 4285626699
31.414101 24.663565 1.6332995 4285363529
31.417034 24.664726 1.634323 4285100359
31.419207 24.665251 1.6343384 4284771140
31.42214 24.666412 1.6353619 4284376384
31.42367 24.667702 1.6353781 4284179006
31.428778 24.669386 1.636417 4283850041
31.431709 24.670547 1.6374404 4283652663
31.395807 24.657307 1.6361592 4291480511
31.396572 24.657949 1.6361673 4290494119
31.397343 24.6586 1.6351755 4289442189
31.398752 24.65848 1.6351827 4288586875
31.399517 24.659124 1.6351908 4287995245
31.399523 24.65913 1.6341909 4287666538
31.400293 24.659781 1.633199 4287272038
31.401701 24.659658 1.6332062 4286943328
31.402472 24.660309 1.6322144 4286680155
31.402472 24.660309 1.6322144 4286416981
31.403887 24.660194 1.6312218 4286219599
31.405416 24.661482 1.631238 4286153551
31.406826 24.661362 1.6312453 4286284625
31.407597 24.662012 1.6302534 4286284369
31.409769 24.662537 1.6302688 4286152784
31.410534 24.663179 1.6302769 4285692234
31.411299 24.663824 1.630285 4285100098
31.412714 24.66371 1.6292924 4284639548
31.414244 24.664997 1.6293086 4284245048
31.417177 24.666159 1.6303321 4284113464
31.396698 24.659365 1.6351763 4290494877
31.398108 24.659245 1.6351836 4288784254
31.398872 24.659889 1.6351917 4288390003
31.399643 24.660538 1.6341999 4288324468
31.400293 24.659781 1.633199 4288061554
31.401056 24.660423 1.6332072 4287798637
31.401827 24.661074 1.6322153 4287667050
31.401827 24.661074 1.6322153 4287469669
31.401833 24.661079 1.6312153 4287272287
31.401838 24.661085 1.6302154 4287337825
31.403254 24.660971 1.6292228 4287534692
31.403259 24.660976 1.6282227 4287863401
31.403265 24.660982 1.6272228 4287929195
31.40403 24.661627 1.6272309 4287337059
31.406204 24.662151 1.6272463 4286284372
31.406969 24.662794 1.6272544 4285297478
31.40774 24.663445 1.6262625 4284442427
31.409912 24.663969 1.6262779 4284310843
31.412086 24.664492 1.6262933 4283981624
31.415785 24.666298 1.6273249 4283849783
31.419483 24.668104 1.6283565 4283849784
31.401178 24.661833 1.6332161 4288390519
31.402586 24.661713 1.6332234 4288324980
31.401184 24.661839 1.6322162 4287996270
31.40119 24.661844 1.6312162 4288193904
31.400436 24.661213 1.6292082 4288522100
31.400442 24.661219 1.6282082 4288981881
31.400448 24.661224 1.6272082 4289245053
31.400454 24.66123 1.6262082 4289376638
31.400457 24.661236 1.6252083 4288587121
31.401222 24.66188 1.6252164 4286942295
31.401228 24.661886 1.6242164 4285494849
31.403402 24.662409 1.6242318 4284705333
31.404167 24.663054 1.6242399 4284376370
31.404173 24.663059 1.62324 4284113199
31.405588 24.662945 1.6222473 4283981615
31.407118 24.664232 1.6222636 4283850031
31.411459 24.665274 1.6232942 4283718192
31.40196 24.662495 1.6302243 4289180030
31.400557 24.662621 1.6292171 4289442432
31.399803 24.661989 1.6272091 4289508225
31.399044 24.66135 1.6262009 4289113466
31.39905 24.661356 1.625201 4288060777
31.399055 24.661362 1.6242011 4286481744
31.397652 24.661489 1.6231937 4285100091
31.399067 24.661373 1.6222011 4284310575
31.399832 24.662018 1.6222092 4283915819
31.400602 24.662668 1.6212174 4284047406
31.40201 24.662548 1.6212246 4283981615
31.402781 24.663198 1.6202328 4283784238
31.404955 24.663721 1.6202482 4283652399
31.408653 24.665527 1.6212798 4283718195
31.410822 24.666044 1.6222951 4283783990
31.411592 24.666695 1.6213033 4283520819
31.401327 24.663271 1.6282252 4288258669
31.399164 24.66276 1.62621 4287403359
31.398405 24.662121 1.6252018 4286153292
31.397001 24.662249 1.6241946 4284969018
31.396248 24.661615 1.6221865 4284113709
31.396254 24.661621 1.6211866 4283653158
31.397663 24.661501 1.6211939 4283455780
31.397669 24.661507 1.620194 4283587367
31.398439 24.662157 1.619202 4283652648
31.399204 24.6628 1.6192101 4283586855
31.40062 24.662685 1.6182175 4283586857
31.402143 24.663969 1.6192337 4283652652
31.404316 24.664492 1.6192491 4283652397
31.405087 24.665142 1.6182573 4283586605
31.406496 24.665022 1.6182646 4283455022
31.401447 24.66468 1.6282343 4285363776
31.399929 24.663404 1.6262181 4284311088
31.397766 24.662891 1.6242027 4283521572
31.395603 24.66238 1.6221874 4283192607
31.395609 24.662386 1.6211874 4283126814
31.395615 24.662392 1.6201875 4283126815
31.39562 24.662397 1.6191875 4283192609
31.395626 24.662403 1.6181875 4283389476
31.397036 24.662283 1.6181948 4283521062
31.3978 24.662928 1.6182029 4283586857
31.398571 24.663578 1.6172111 4283652652
31.400745 24.664101 1.6172265 4283586604
31.40151 24.664745 1.6172346 4283455019
31.402924 24.664631 1.6162419 4283389229
31.403688 24.665274 1.61625 4283323696
31.405863 24.665798 1.6162654 4282863148
31.408802 24.666965 1.6162889 4282402601
31.402977 24.665968 1.6282505 4283389734
31.39929 24.664175 1.625219 4283060770
31.396362 24.663019 1.6231955 4283060770
31.394966 24.663151 1.6211883 4283060770
31.394207 24.662512 1.6201802 4282994977
31.394978 24.663162 1.6191883 4283060770
31.394983 24.663168 1.6181884 4283257892
31.394989 24.663174 1.6171885 4283455271
31.396397 24.663054 1.6171957 4283652649
31.397161 24.663698 1.6172038 4283718441
31.399336 24.664221 1.6172192 4283718441
31.399342 24.664227 1.6162193 4283586855
31.400112 24.664877 1.6152275 4283520551
31.400877 24.665522 1.6152356 4283388710
31.402292 24.665407 1.6142428 4283125799
31.403822 24.666695 1.614259 4282797095
31.406784 24.669172 1.6312909 4282863390
31.403097 24.667377 1.6282594 4282863391
31.398651 24.664946 1.6242198 4282929184
31.39649 24.664433 1.6222045 4282994977
31.395731 24.663795 1.6211964 4282929184
31.394333 24.663927 1.6191891 4283060770
31.395742 24.663807 1.6191964 4283257892
31.394344 24.663939 1.6171893 4283389478
31.395754 24.663818 1.6171966 4283521063
31.395758 24.663824 1.6161966 4283586855
31.397287 24.665113 1.6162128 4283652648
31.397293 24.665119 1.6152129 4283586855
31.397299 24.665125 1.6142129 4283520551
31.398708 24.665005 1.6142201 4283257124
31.399479 24.665653 1.6132283 4283060006
31.401653 24.666178 1.6132437 4282994474
31.409723 24.67034 1.6313145 4283060522
31.401699 24.667511 1.6262522 4283060523
31.396605 24.665836 1.6232134 4283126317
31.395086 24.66456 1.6211972 4283323695
31.395092 24.664566 1.6201973 4283521073
31.395098 24.664572 1.6191974 4283784500
31.395103 24.664577 1.6181973 4283850292
31.395109 24.664583 1.6171974 4283784497
31.395115 24.664589 1.6161975 4283784495
31.39588 24.665234 1.6162056 4283784494
31.39665 24.665884 1.6152138 4283521321
31.397299 24.665125 1.6142129 4283258407
31.397305 24.665131 1.6132129 4283258665
31.398069 24.665775 1.613221 4282929702
31.39884 24.666426 1.6122292 4282863911
31.404747 24.670074 1.6282847 4283784246
31.398893 24.667763 1.6242378 4283915833
31.395206 24.665968 1.6212062 4284310590
31.395212 24.665976 1.6202062 4284244796
31.395218 24.665981 1.6192063 4284705602
31.395218 24.665981 1.6192063 4284837187
31.395224 24.665987 1.6182064 4284639806
31.395229 24.665993 1.6172063 4284508218
31.395235 24.665998 1.6162064 4284245045
31.395241 24.666004 1.6152065 4283718700
31.396656 24.66589 1.6142137 4283324200
31.396662 24.665895 1.6132138 4283192872
31.396667 24.665901 1.6122139 4282929702
31.397432 24.666546 1.612222 4283061290
31.399605 24.667068 1.6122373 4283126574
31.39673 24.667252 1.6222224 4283784770
31.395971 24.666613 1.6212144 4283850563
31.395977 24.666618 1.6202143 4284705870
31.396742 24.667263 1.6202224 4285626970
31.395988 24.666632 1.6182145 4285626967
31.395994 24.666637 1.6172144 4285100877
31.396 24.666643 1.6162145 4284574530
31.396006 24.666649 1.6152146 4284113976
31.396011 24.666655 1.6142145 4283719729
31.396776 24.667299 1.6142226 4283259946
31.396782 24.667305 1.6132227 4282996263
31.396788 24.667311 1.6122228 4282864422
31.397552 24.667955 1.6122309 4282798375
31.399725 24.668478 1.6122463 4282929706
31.399031 24.669189 1.6212468 4284113731
31.398272 24.668552 1.6202388 4285626967
31.398277 24.668558 1.6192387 4286087772
31.398283 24.668564 1.6182388 4285561425
31.398289 24.66857 1.6172389 4284837699
31.396891 24.668701 1.6152316 4284311866
31.396896 24.668707 1.6142317 4283852083
31.396902 24.668713 1.6132317 4283325228
31.396908 24.668718 1.6122317 4283127594
31.396908 24.668718 1.6122317 4283061547
31.398323 24.668604 1.6112391 4282863913
31.399088 24.669249 1.6112472 4282600744
31.40126 24.669773 1.6112626 4282797869
31.402084 24.671761 1.6222793 4283785026
31.400566 24.670485 1.6202631 4284837967
31.401331 24.671129 1.6202712 4285956445
31.401337 24.671135 1.6192713 4285956443
31.399174 24.670622 1.6172559 4285036365
31.39842 24.669991 1.6152478 4284181823
31.398426 24.669996 1.6142479 4283786808
31.398432 24.670002 1.613248 4283391793
31.398432 24.670002 1.613248 4283128366
31.398438 24.670008 1.6122479 4283128110
31.398443 24.670013 1.611248 4283259186
31.400618 24.670538 1.6112634 4283193138
31.402147 24.671825 1.6112796 4282863920
31.408066 24.675488 1.6253352 4283061556
31.407312 24.674854 1.6233271 4284377413
31.407318 24.674862 1.6223272 4285364306
31.40439 24.673706 1.6203038 4285760088
31.401468 24.672556 1.6172802 4285168718
31.39995 24.671278 1.6152642 4284576324
31.399956 24.671284 1.6142641 4283918137
31.399956 24.671284 1.6142641 4283523124
31.398558 24.671417 1.6122569 4283391282
31.398563 24.671423 1.611257 4283193393
31.398569 24.671429 1.610257 4283061552
31.400743 24.671951 1.6102724 4282863920
31.408854 24.676155 1.6213434 4286089059
31.403757 24.674482 1.6183046 4285694299
31.400835 24.673332 1.6152812 4284970575
31.400076 24.672693 1.6142731 4284181058
31.400082 24.672699 1.6132731 4283786042
31.399323 24.67206 1.6122651 4283587894
31.397924 24.672194 1.6102579 4283390259
31.399334 24.672073 1.6102651 4283192368
31.408979 24.67757 1.6203524 4286286435
31.405293 24.675776 1.6173209 4285694297
31.401606 24.673983 1.6142894 4284838730
31.400202 24.674109 1.6132821 4284245824
31.399448 24.673475 1.6112741 4283785017
31.399454 24.673481 1.6102741 4283521333
31.408346 24.678347 1.6183534 4286153566
31.403894 24.675909 1.6153136 4285494866
31.402496 24.676041 1.6133065 4284639300
31.39957 24.674885 1.6112831 4284441409
